0.955078 0.944336 0.951172 0.960938 0.963867 0.958984 0.960938 0.948242 0.963867 0.971680 0.962891 0.954102 0.956055 0.967773 0.959961 0.972656 0.960938 0.967773 0.975586 0.970703 0.974609 0.962891 0.974609 0.976562 0.968750 0.974609 0.955078 0.973633 0.972656 0.958984 0.966797 0.971680 0.968750 0.971680 0.974609 0.986328 0.981445 0.986328 0.984375 0.972656 0.980469 0.977539 0.975586 0.960938 0.976562 0.980469 0.980469 0.981445 0.985352 0.981445 0.980469 0.982422 0.980469 0.988281 0.984375 0.983398 0.978516 0.984375 0.984375 0.983398 0.984375 0.977539 0.983398 0.987305 0.975586 0.982422 0.984375 0.987305 0.983398 0.980469 0.989258 0.991211 0.990234 0.995117 0.995117 0.997070 0.997070 0.999023 0.999023 0.999023 0.999023 0.999023 0.999023 0.999023 0.999023 0.999023 0.999023 0.999023 0.999023 0.999023 0.999023 0.999023 0.999023 0.999023 0.999023 0.999023 0.999023 0.999023 0.999023 0.999023 0.999023 0.999023 0.999023 0.999023 0.999023 0.999023 0.999023 0.999023 0.999023 0.999023 0.999023 0.999023 0.999023 0.999023 0.999023 0.999023 0.999023 0.999023 0.999023 0.998047 0.999023 0.999023 0.999023 0.999023 0.998047 0.999023 0.999023 0.999023 0.999023 0.999023 0.999023 0.997070 0.993164 0.992188 0.996094 0.994141 0.997070 0.995117 0.991211 0.994141 0.996094 0.992188 0.995117 0.996094 0.995117 0.997070 0.995117 0.997070 0.999023 0.999023 0.992188 0.983398 0.985352 0.979492 0.987305 0.982422 0.984375 0.987305 0.982422 0.987305 0.990234 0.999023 0.999023 0.999023 0.998047 0.998047 0.998047 0.997070 0.995117 0.997070 0.991211 0.995117 0.999023 0.999023 0.997070 0.995117 0.997070 0.992188 0.994141 0.990234 0.985352 0.984375 0.982422 0.984375 0.979492 0.975586 0.975586 0.974609 0.968750 0.956055 0.954102 0.931641 0.943359 0.935547 0.945312 0.934570 0.916992 0.897461 0.910156 0.923828 0.905273 0.915039 0.916016 0.933594 0.934570 0.941406 0.964844 0.984375 0.985352 0.981445 0.974609 0.971680 0.954102 0.968750 0.962891 0.963867 0.959961 0.966797 0.960938 0.963867 0.974609 0.973633 0.971680 0.983398 0.980469 0.979492 0.981445 0.983398 0.981445 0.978516 0.982422 0.981445 0.984375 0.983398 0.973633 0.977539 0.981445 0.980469 0.986328 0.983398 0.985352 0.987305 0.979492 0.983398 0.985352 0.980469 0.983398 0.977539 0.982422 0.982422 0.973633 0.983398 0.987305 0.982422 0.984375 0.980469 0.983398 0.989258 0.987305 0.980469 0.981445 0.975586 0.981445 0.976562 0.981445 0.992188 0.994141 0.995117 0.999023 0.999023 0.999023 0.993164 0.981445 0.963867 0.974609 0.962891 0.957031 0.965820 0.975586 0.972656 0.972656 0.982422 0.977539 0.968750 0.981445 0.987305 0.981445 0.990234 0.991211 0.996094 0.994141 0.992188 0.984375 0.983398 0.983398 0.991211 0.987305 0.991211 0.993164 0.992188 0.987305 0.979492 0.971680 0.968750 0.972656 0.951172 0.974609 0.938477 0.960938 0.934570 0.945312 0.925781 0.935547 0.939453 0.951172 0.957031 0.963867 0.972656 0.973633 0.976562 0.984375 0.975586 0.981445 0.982422 0.988281 0.990234 0.993164 0.993164 0.988281 0.986328 0.991211
0.961914 0.962891 0.948242 0.955078 0.958008 0.958984 0.964844 0.961914 0.966797 0.961914 0.963867 0.958984 0.954102 0.969727 0.956055 0.969727 0.965820 0.973633 0.975586 0.971680 0.978516 0.978516 0.981445 0.981445 0.964844 0.975586 0.967773 0.958984 0.972656 0.969727 0.970703 0.971680 0.983398 0.973633 0.982422 0.983398 0.979492 0.986328 0.981445 0.974609 0.981445 0.980469 0.982422 0.963867 0.973633 0.983398 0.976562 0.987305 0.983398 0.988281 0.982422 0.979492 0.992188 0.991211 0.988281 0.984375 0.984375 0.990234 0.984375 0.985352 0.988281 0.985352 0.986328 0.981445 0.981445 0.980469 0.982422 0.977539 0.988281 0.987305 0.991211 0.989258 0.990234 0.996094 0.993164 0.997070 0.999023 0.999023 0.999023 0.999023 0.999023 0.999023 0.999023 0.999023 0.999023 0.999023 0.999023 0.999023 0.999023 0.999023 0.999023 0.999023 0.999023 0.999023 0.999023 0.999023 0.999023 0.999023 0.999023 0.999023 0.999023 0.999023 0.999023 0.999023 0.999023 0.999023 0.999023 0.999023 0.999023 0.999023 0.999023 0.999023 0.999023 0.999023 0.999023 0.999023 0.999023 0.999023 0.999023 0.999023 0.999023 0.999023 0.999023 0.999023 0.999023 0.999023 0.999023 0.999023 0.998047 0.999023 0.999023 0.996094 0.996094 0.995117 0.997070 0.996094 0.994141 0.993164 0.992188 0.993164 0.998047 0.997070 0.993164 0.994141 0.998047 0.996094 0.997070 0.996094 0.999023 0.999023 0.997070 0.993164 0.989258 0.988281 0.990234 0.987305 0.988281 0.991211 0.987305 0.993164 0.997070 0.999023 0.999023 0.998047 0.997070 0.998047 0.998047 0.994141 0.998047 0.996094 0.998047 0.999023 0.996094 0.996094 0.992188 0.999023 0.997070 0.994141 0.991211 0.993164 0.990234 0.983398 0.986328 0.983398 0.977539 0.963867 0.965820 0.965820 0.949219 0.953125 0.941406 0.951172 0.920898 0.939453 0.919922 0.909180 0.912109 0.919922 0.909180 0.906250 0.923828 0.916016 0.924805 0.923828 0.953125 0.974609 0.974609 0.989258 0.979492 0.975586 0.972656 0.961914 0.972656 0.961914 0.959961 0.960938 0.959961 0.959961 0.968750 0.978516 0.970703 0.982422 0.987305 0.983398 0.989258 0.977539 0.987305 0.986328 0.993164 0.986328 0.991211 0.984375 0.978516 0.985352 0.979492 0.977539 0.988281 0.985352 0.985352 0.990234 0.988281 0.989258 0.991211 0.984375 0.986328 0.988281 0.982422 0.986328 0.986328 0.985352 0.987305 0.984375 0.990234 0.985352 0.984375 0.987305 0.979492 0.988281 0.987305 0.988281 0.984375 0.986328 0.988281 0.987305 0.992188 0.993164 0.998047 0.998047 0.999023 0.999023 0.996094 0.992188 0.982422 0.964844 0.967773 0.972656 0.969727 0.969727 0.983398 0.982422 0.991211 0.979492 0.981445 0.978516 0.973633 0.979492 0.990234 0.990234 0.993164 0.991211 0.989258 0.987305 0.984375 0.986328 0.987305 0.987305 0.989258 0.995117 0.993164 0.993164 0.991211 0.981445 0.979492 0.966797 0.964844 0.969727 0.957031 0.958984 0.953125 0.947266 0.933594 0.938477 0.950195 0.944336 0.958984 0.966797 0.970703 0.975586 0.971680 0.975586 0.982422 0.985352 0.985352 0.984375 0.989258 0.995117 0.990234 0.994141 0.988281 0.993164 0.994141
0.959961 0.961914 0.958984 0.958008 0.962891 0.970703 0.968750 0.968750 0.970703 0.966797 0.967773 0.971680 0.953125 0.952148 0.971680 0.972656 0.972656 0.969727 0.975586 0.974609 0.978516 0.977539 0.979492 0.967773 0.977539 0.962891 0.967773 0.964844 0.965820 0.965820 0.969727 0.973633 0.979492 0.976562 0.977539 0.980469 0.979492 0.973633 0.975586 0.986328 0.977539 0.969727 0.982422 0.983398 0.976562 0.982422 0.983398 0.975586 0.985352 0.987305 0.982422 0.982422 0.992188 0.986328 0.984375 0.986328 0.987305 0.983398 0.984375 0.981445 0.990234 0.984375 0.985352 0.969727 0.980469 0.978516 0.975586 0.981445 0.985352 0.989258 0.991211 0.986328 0.991211 0.997070 0.991211 0.995117 0.997070 0.999023 0.999023 0.999023 0.999023 0.999023 0.999023 0.999023 0.999023 0.999023 0.999023 0.999023 0.998047 0.998047 0.999023 0.998047 0.999023 0.999023 0.999023 0.999023 0.999023 0.999023 0.999023 0.999023 0.999023 0.999023 0.999023 0.999023 0.999023 0.999023 0.999023 0.999023 0.999023 0.999023 0.999023 0.999023 0.999023 0.999023 0.999023 0.999023 0.999023 0.999023 0.999023 0.999023 0.999023 0.999023 0.999023 0.999023 0.997070 0.998047 0.995117 0.997070 0.999023 0.999023 0.999023 0.995117 0.996094 0.996094 0.987305 0.996094 0.994141 0.992188 0.994141 0.994141 0.994141 0.996094 0.996094 0.994141 0.996094 0.995117 0.999023 0.998047 0.999023 0.999023 0.999023 0.996094 0.993164 0.996094 0.991211 0.994141 0.992188 0.993164 0.994141 0.996094 0.999023 0.999023 0.999023 0.999023 0.999023 0.999023 0.997070 0.995117 0.999023 0.998047 0.999023 0.999023 0.998047 0.996094 0.997070 0.990234 0.991211 0.992188 0.988281 0.992188 0.988281 0.981445 0.980469 0.976562 0.981445 0.965820 0.977539 0.973633 0.954102 0.954102 0.947266 0.922852 0.937500 0.919922 0.916992 0.920898 0.926758 0.915039 0.901367 0.908203 0.917969 0.916016 0.928711 0.941406 0.947266 0.975586 0.978516 0.990234 0.984375 0.970703 0.967773 0.973633 0.964844 0.960938 0.965820 0.956055 0.958008 0.964844 0.982422 0.984375 0.980469 0.989258 0.985352 0.988281 0.989258 0.996094 0.992188 0.983398 0.988281 0.989258 0.977539 0.988281 0.988281 0.978516 0.990234 0.990234 0.993164 0.994141 0.992188 0.990234 0.990234 0.990234 0.988281 0.983398 0.993164 0.986328 0.984375 0.986328 0.984375 0.988281 0.990234 0.984375 0.985352 0.986328 0.984375 0.985352 0.988281 0.986328 0.988281 0.986328 0.994141 0.981445 0.983398 0.991211 0.989258 0.997070 0.997070 0.998047 0.997070 0.995117 0.990234 0.990234 0.984375 0.979492 0.973633 0.971680 0.960938 0.969727 0.986328 0.987305 0.990234 0.986328 0.979492 0.984375 0.984375 0.991211 0.990234 0.996094 0.988281 0.988281 0.981445 0.986328 0.985352 0.986328 0.989258 0.990234 0.991211 0.985352 0.994141 0.989258 0.991211 0.979492 0.973633 0.982422 0.965820 0.964844 0.956055 0.960938 0.950195 0.957031 0.952148 0.938477 0.952148 0.941406 0.960938 0.959961 0.964844 0.967773 0.979492 0.966797 0.979492 0.984375 0.987305 0.994141 0.991211 0.994141 0.994141 0.993164 0.996094 0.995117 0.991211
0.953125 0.962891 0.967773 0.950195 0.965820 0.970703 0.967773 0.958008 0.976562 0.961914 0.975586 0.966797 0.971680 0.967773 0.970703 0.975586 0.981445 0.975586 0.978516 0.972656 0.977539 0.973633 0.974609 0.975586 0.968750 0.973633 0.961914 0.972656 0.959961 0.972656 0.978516 0.966797 0.981445 0.984375 0.975586 0.977539 0.978516 0.986328 0.977539 0.976562 0.964844 0.977539 0.966797 0.974609 0.976562 0.985352 0.980469 0.980469 0.978516 0.976562 0.990234 0.989258 0.975586 0.987305 0.990234 0.988281 0.982422 0.978516 0.983398 0.983398 0.985352 0.978516 0.980469 0.986328 0.987305 0.976562 0.981445 0.982422 0.980469 0.986328 0.988281 0.990234 0.992188 0.994141 0.998047 0.998047 0.997070 0.999023 0.999023 0.999023 0.999023 0.999023 0.999023 0.999023 0.999023 0.999023 0.999023 0.996094 0.999023 0.997070 0.998047 0.997070 0.999023 0.999023 0.999023 0.998047 0.998047 0.998047 0.999023 0.999023 0.999023 0.999023 0.999023 0.999023 0.999023 0.999023 0.999023 0.999023 0.999023 0.999023 0.999023 0.999023 0.999023 0.999023 0.999023 0.999023 0.999023 0.999023 0.998047 0.999023 0.999023 0.997070 0.998047 0.998047 0.993164 0.996094 0.992188 0.995117 0.998047 0.999023 0.998047 0.999023 0.994141 0.993164 0.993164 0.993164 0.995117 0.996094 0.994141 0.995117 0.997070 0.993164 0.998047 0.998047 0.998047 0.996094 0.998047 0.999023 0.999023 0.999023 0.999023 0.999023 0.999023 0.999023 0.999023 0.998047 0.997070 0.998047 0.998047 0.999023 0.999023 0.999023 0.999023 0.999023 0.999023 0.999023 0.999023 0.998047 0.998047 0.999023 0.999023 0.998047 0.998047 0.998047 0.993164 0.996094 0.994141 0.988281 0.990234 0.993164 0.990234 0.979492 0.978516 0.982422 0.975586 0.958008 0.955078 0.958008 0.952148 0.939453 0.944336 0.928711 0.919922 0.911133 0.906250 0.902344 0.896484 0.908203 0.909180 0.921875 0.917969 0.927734 0.933594 0.947266 0.949219 0.966797 0.977539 0.991211 0.980469 0.977539 0.968750 0.962891 0.956055 0.965820 0.968750 0.971680 0.976562 0.973633 0.983398 0.987305 0.986328 0.983398 0.988281 0.990234 0.994141 0.995117 0.994141 0.994141 0.987305 0.988281 0.987305 0.985352 0.985352 0.987305 0.992188 0.993164 0.996094 0.995117 0.994141 0.991211 0.991211 0.988281 0.991211 0.986328 0.980469 0.980469 0.990234 0.986328 0.994141 0.992188 0.993164 0.990234 0.990234 0.990234 0.990234 0.994141 0.995117 0.991211 0.997070 0.992188 0.986328 0.984375 0.986328 0.993164 0.998047 0.997070 0.996094 0.997070 0.998047 0.996094 0.995117 0.983398 0.985352 0.973633 0.978516 0.979492 0.981445 0.993164 0.991211 0.986328 0.986328 0.985352 0.978516 0.980469 0.983398 0.986328 0.995117 0.988281 0.983398 0.980469 0.985352 0.987305 0.987305 0.986328 0.989258 0.993164 0.992188 0.986328 0.991211 0.991211 0.980469 0.990234 0.980469 0.980469 0.963867 0.964844 0.958008 0.946289 0.952148 0.958984 0.944336 0.961914 0.937500 0.940430 0.935547 0.958008 0.959961 0.963867 0.969727 0.977539 0.980469 0.985352 0.994141 0.986328 0.993164 0.992188 0.996094 0.998047 0.994141 0.989258 0.981445
0.961914 0.963867 0.974609 0.973633 0.976562 0.958984 0.963867 0.964844 0.975586 0.971680 0.961914 0.954102 0.967773 0.974609 0.956055 0.973633 0.974609 0.980469 0.981445 0.977539 0.990234 0.981445 0.975586 0.976562 0.984375 0.970703 0.969727 0.961914 0.966797 0.974609 0.970703 0.969727 0.970703 0.969727 0.977539 0.986328 0.979492 0.972656 0.977539 0.975586 0.974609 0.971680 0.961914 0.973633 0.975586 0.968750 0.971680 0.978516 0.986328 0.982422 0.989258 0.981445 0.980469 0.988281 0.993164 0.983398 0.984375 0.986328 0.984375 0.986328 0.976562 0.986328 0.980469 0.974609 0.980469 0.976562 0.977539 0.983398 0.979492 0.983398 0.991211 0.985352 0.992188 0.990234 0.997070 0.999023 0.999023 0.999023 0.999023 0.999023 0.999023 0.999023 0.999023 0.999023 0.999023 0.999023 0.999023 0.998047 0.999023 0.999023 0.999023 0.995117 0.998047 0.996094 0.999023 0.998047 0.999023 0.999023 0.998047 0.999023 0.999023 0.999023 0.999023 0.999023 0.999023 0.999023 0.999023 0.999023 0.999023 0.999023 0.999023 0.999023 0.999023 0.999023 0.999023 0.999023 0.999023 0.999023 0.998047 0.997070 0.996094 0.999023 0.995117 0.993164 0.991211 0.990234 0.987305 0.989258 0.996094 0.998047 0.998047 0.994141 0.994141 0.994141 0.989258 0.987305 0.988281 0.994141 0.995117 0.995117 0.995117 0.996094 0.998047 0.998047 0.998047 0.999023 0.999023 0.999023 0.999023 0.999023 0.999023 0.999023 0.999023 0.999023 0.999023 0.998047 0.999023 0.999023 0.999023 0.999023 0.999023 0.999023 0.999023 0.998047 0.999023 0.999023 0.999023 0.999023 0.999023 0.999023 0.999023 0.998047 0.997070 0.994141 0.997070 0.991211 0.995117 0.996094 0.990234 0.987305 0.982422 0.984375 0.978516 0.969727 0.974609 0.963867 0.963867 0.953125 0.949219 0.926758 0.943359 0.930664 0.922852 0.907227 0.899414 0.908203 0.908203 0.903320 0.916992 0.908203 0.920898 0.934570 0.958008 0.951172 0.978516 0.988281 0.981445 0.992188 0.982422 0.972656 0.961914 0.964844 0.967773 0.958008 0.965820 0.980469 0.974609 0.988281 0.987305 0.989258 0.988281 0.985352 0.992188 0.995117 0.997070 0.991211 0.996094 0.995117 0.989258 0.989258 0.989258 0.983398 0.988281 0.985352 0.995117 0.995117 0.997070 0.997070 0.997070 0.995117 0.990234 0.995117 0.987305 0.988281 0.986328 0.987305 0.987305 0.989258 0.991211 0.995117 0.992188 0.991211 0.988281 0.990234 0.991211 0.996094 0.993164 0.994141 0.994141 0.989258 0.994141 0.990234 0.991211 0.997070 0.999023 0.996094 0.992188 0.992188 0.997070 0.996094 0.995117 0.981445 0.989258 0.989258 0.976562 0.983398 0.989258 0.993164 0.989258 0.990234 0.987305 0.989258 0.985352 0.988281 0.984375 0.995117 0.990234 0.985352 0.974609 0.984375 0.978516 0.978516 0.982422 0.986328 0.988281 0.994141 0.991211 0.993164 0.987305 0.989258 0.989258 0.973633 0.986328 0.974609 0.974609 0.971680 0.961914 0.968750 0.956055 0.953125 0.958984 0.945312 0.961914 0.949219 0.947266 0.962891 0.972656 0.964844 0.975586 0.975586 0.977539 0.990234 0.985352 0.988281 0.996094 0.998047 0.998047 0.998047 0.995117 0.988281 0.996094
0.968750 0.969727 0.964844 0.972656 0.970703 0.972656 0.973633 0.967773 0.967773 0.967773 0.967773 0.972656 0.967773 0.972656 0.970703 0.982422 0.978516 0.985352 0.982422 0.988281 0.982422 0.988281 0.983398 0.972656 0.978516 0.972656 0.969727 0.966797 0.981445 0.977539 0.978516 0.969727 0.976562 0.971680 0.978516 0.982422 0.983398 0.978516 0.975586 0.975586 0.968750 0.961914 0.969727 0.963867 0.964844 0.972656 0.977539 0.985352 0.988281 0.984375 0.991211 0.989258 0.992188 0.987305 0.981445 0.988281 0.985352 0.983398 0.981445 0.983398 0.981445 0.986328 0.985352 0.989258 0.970703 0.981445 0.983398 0.981445 0.981445 0.982422 0.984375 0.996094 0.993164 0.996094 0.999023 0.999023 0.999023 0.999023 0.999023 0.999023 0.999023 0.999023 0.999023 0.999023 0.999023 0.999023 0.999023 0.998047 0.999023 0.998047 0.996094 0.998047 0.999023 0.999023 0.995117 0.997070 0.998047 0.999023 0.999023 0.998047 0.998047 0.999023 0.999023 0.999023 0.999023 0.999023 0.999023 0.999023 0.999023 0.999023 0.999023 0.999023 0.999023 0.999023 0.999023 0.999023 0.997070 0.997070 0.996094 0.993164 0.993164 0.996094 0.986328 0.991211 0.980469 0.987305 0.983398 0.988281 0.995117 0.999023 0.998047 0.995117 0.994141 0.995117 0.995117 0.995117 0.995117 0.992188 0.995117 0.996094 0.995117 0.991211 0.997070 0.998047 0.999023 0.999023 0.999023 0.999023 0.999023 0.999023 0.999023 0.999023 0.999023 0.999023 0.999023 0.999023 0.999023 0.999023 0.999023 0.999023 0.999023 0.996094 0.997070 0.995117 0.997070 0.996094 0.998047 0.998047 0.999023 0.997070 0.995117 0.996094 0.998047 0.999023 0.994141 0.994141 0.994141 0.991211 0.995117 0.987305 0.982422 0.976562 0.982422 0.964844 0.968750 0.961914 0.955078 0.954102 0.939453 0.942383 0.926758 0.916992 0.928711 0.919922 0.910156 0.897461 0.906250 0.895508 0.924805 0.916016 0.938477 0.931641 0.943359 0.966797 0.980469 0.988281 0.996094 0.994141 0.988281 0.976562 0.966797 0.967773 0.972656 0.973633 0.962891 0.973633 0.985352 0.989258 0.993164 0.992188 0.995117 0.990234 0.996094 0.998047 0.997070 0.994141 0.991211 0.986328 0.991211 0.986328 0.991211 0.990234 0.986328 0.992188 0.990234 0.994141 0.999023 0.999023 0.999023 0.997070 0.995117 0.988281 0.992188 0.989258 0.987305 0.989258 0.990234 0.997070 0.989258 0.994141 0.993164 0.994141 0.995117 0.996094 0.995117 0.996094 0.996094 0.994141 0.991211 0.992188 0.996094 0.991211 0.994141 0.996094 0.994141 0.992188 0.990234 0.993164 0.994141 0.998047 0.988281 0.984375 0.988281 0.983398 0.977539 0.994141 0.993164 0.993164 0.985352 0.989258 0.987305 0.982422 0.982422 0.984375 0.993164 0.990234 0.982422 0.976562 0.981445 0.971680 0.979492 0.987305 0.986328 0.981445 0.991211 0.988281 0.990234 0.991211 0.991211 0.994141 0.987305 0.986328 0.978516 0.971680 0.975586 0.971680 0.952148 0.965820 0.964844 0.945312 0.959961 0.957031 0.960938 0.951172 0.962891 0.960938 0.959961 0.973633 0.978516 0.976562 0.982422 0.984375 0.986328 0.995117 0.996094 0.999023 0.999023 0.992188 0.993164 0.991211 0.984375
0.959961 0.971680 0.985352 0.972656 0.978516 0.980469 0.977539 0.970703 0.969727 0.971680 0.963867 0.961914 0.968750 0.979492 0.972656 0.986328 0.985352 0.984375 0.978516 0.984375 0.986328 0.981445 0.977539 0.977539 0.977539 0.970703 0.966797 0.972656 0.978516 0.979492 0.976562 0.964844 0.977539 0.966797 0.974609 0.975586 0.975586 0.982422 0.970703 0.969727 0.970703 0.966797 0.977539 0.974609 0.970703 0.980469 0.979492 0.980469 0.982422 0.988281 0.982422 0.987305 0.985352 0.990234 0.981445 0.985352 0.987305 0.985352 0.986328 0.983398 0.978516 0.986328 0.987305 0.983398 0.970703 0.976562 0.981445 0.980469 0.984375 0.984375 0.987305 0.991211 0.996094 0.996094 0.997070 0.997070 0.999023 0.999023 0.999023 0.999023 0.999023 0.999023 0.999023 0.999023 0.998047 0.999023 0.999023 0.999023 0.999023 0.997070 0.999023 0.998047 0.997070 0.999023 0.998047 0.999023 0.998047 0.999023 0.998047 0.998047 0.999023 0.999023 0.999023 0.999023 0.999023 0.999023 0.999023 0.999023 0.999023 0.999023 0.999023 0.999023 0.999023 0.999023 0.999023 0.997070 0.998047 0.996094 0.995117 0.995117 0.994141 0.989258 0.990234 0.985352 0.988281 0.979492 0.984375 0.990234 0.996094 0.999023 0.996094 0.994141 0.988281 0.997070 0.990234 0.992188 0.994141 0.996094 0.991211 0.997070 0.996094 0.997070 0.997070 0.999023 0.999023 0.999023 0.999023 0.999023 0.999023 0.999023 0.999023 0.999023 0.999023 0.999023 0.999023 0.999023 0.999023 0.999023 0.999023 0.998047 0.997070 0.987305 0.990234 0.994141 0.992188 0.994141 0.995117 0.999023 0.995117 0.996094 0.992188 0.991211 0.995117 0.990234 0.993164 0.991211 0.994141 0.994141 0.989258 0.985352 0.987305 0.981445 0.974609 0.967773 0.961914 0.968750 0.955078 0.952148 0.934570 0.931641 0.918945 0.926758 0.895508 0.896484 0.914062 0.920898 0.907227 0.899414 0.922852 0.926758 0.939453 0.943359 0.960938 0.980469 0.983398 0.992188 0.995117 0.990234 0.982422 0.977539 0.972656 0.975586 0.974609 0.979492 0.975586 0.983398 0.982422 0.989258 0.990234 0.995117 0.995117 0.999023 0.999023 0.998047 0.996094 0.996094 0.996094 0.987305 0.989258 0.988281 0.987305 0.987305 0.991211 0.994141 0.991211 0.997070 0.999023 0.999023 0.996094 0.997070 0.993164 0.990234 0.994141 0.985352 0.988281 0.988281 0.990234 0.991211 0.994141 0.996094 0.992188 0.997070 0.995117 0.994141 0.998047 0.996094 0.998047 0.999023 0.995117 0.996094 0.995117 0.994141 0.996094 0.997070 0.992188 0.990234 0.993164 0.987305 0.988281 0.994141 0.993164 0.988281 0.983398 0.979492 0.983398 0.992188 0.996094 0.995117 0.994141 0.988281 0.987305 0.980469 0.981445 0.988281 0.992188 0.986328 0.970703 0.979492 0.973633 0.977539 0.986328 0.986328 0.989258 0.989258 0.984375 0.991211 0.991211 0.991211 0.995117 0.988281 0.992188 0.982422 0.981445 0.973633 0.975586 0.977539 0.962891 0.962891 0.972656 0.964844 0.972656 0.964844 0.958984 0.965820 0.967773 0.955078 0.969727 0.972656 0.977539 0.985352 0.978516 0.990234 0.996094 0.996094 0.997070 0.995117 0.996094 0.994141 0.989258 0.992188 0.989258
0.978516 0.972656 0.982422 0.966797 0.977539 0.981445 0.969727 0.972656 0.974609 0.970703 0.964844 0.969727 0.970703 0.978516 0.985352 0.985352 0.991211 0.981445 0.990234 0.990234 0.989258 0.986328 0.988281 0.988281 0.981445 0.978516 0.972656 0.976562 0.976562 0.972656 0.976562 0.976562 0.972656 0.977539 0.972656 0.972656 0.979492 0.977539 0.969727 0.978516 0.973633 0.971680 0.961914 0.974609 0.964844 0.974609 0.980469 0.979492 0.986328 0.988281 0.984375 0.985352 0.985352 0.980469 0.989258 0.982422 0.983398 0.982422 0.982422 0.980469 0.985352 0.985352 0.982422 0.979492 0.977539 0.987305 0.976562 0.982422 0.985352 0.982422 0.993164 0.995117 0.994141 0.998047 0.999023 0.999023 0.999023 0.999023 0.999023 0.999023 0.999023 0.999023 0.999023 0.998047 0.999023 0.998047 0.999023 0.999023 0.999023 0.999023 0.998047 0.999023 0.998047 0.999023 0.998047 0.997070 0.998047 0.999023 0.999023 0.999023 0.998047 0.999023 0.999023 0.999023 0.999023 0.999023 0.999023 0.999023 0.999023 0.999023 0.999023 0.999023 0.999023 0.999023 0.999023 0.998047 0.992188 0.995117 0.988281 0.991211 0.983398 0.985352 0.990234 0.983398 0.975586 0.989258 0.983398 0.986328 0.997070 0.999023 0.999023 0.999023 0.996094 0.995117 0.993164 0.995117 0.993164 0.993164 0.995117 0.997070 0.995117 0.998047 0.999023 0.999023 0.999023 0.999023 0.999023 0.999023 0.999023 0.999023 0.999023 0.999023 0.999023 0.999023 0.999023 0.999023 0.999023 0.999023 0.999023 0.994141 0.994141 0.990234 0.987305 0.989258 0.991211 0.995117 0.997070 0.999023 0.997070 0.992188 0.998047 0.992188 0.991211 0.987305 0.989258 0.985352 0.987305 0.984375 0.990234 0.984375 0.977539 0.975586 0.974609 0.973633 0.965820 0.957031 0.950195 0.950195 0.934570 0.934570 0.921875 0.914062 0.917969 0.899414 0.912109 0.903320 0.912109 0.920898 0.923828 0.943359 0.940430 0.966797 0.970703 0.981445 0.990234 0.992188 0.997070 0.995117 0.979492 0.978516 0.976562 0.974609 0.975586 0.972656 0.976562 0.981445 0.994141 0.992188 0.996094 0.997070 0.996094 0.999023 0.999023 0.995117 0.998047 0.994141 0.989258 0.994141 0.985352 0.984375 0.988281 0.993164 0.994141 0.997070 0.992188 0.998047 0.999023 0.998047 0.994141 0.995117 0.995117 0.991211 0.992188 0.994141 0.991211 0.993164 0.992188 0.998047 0.994141 0.997070 0.998047 0.999023 0.997070 0.997070 0.999023 0.999023 0.998047 0.996094 0.996094 0.995117 0.996094 0.995117 0.994141 0.988281 0.980469 0.991211 0.989258 0.988281 0.995117 0.990234 0.988281 0.992188 0.990234 0.987305 0.990234 0.993164 0.991211 0.987305 0.990234 0.991211 0.990234 0.989258 0.989258 0.985352 0.987305 0.981445 0.975586 0.978516 0.976562 0.973633 0.973633 0.989258 0.981445 0.987305 0.985352 0.986328 0.991211 0.990234 0.986328 0.990234 0.984375 0.988281 0.985352 0.977539 0.987305 0.969727 0.972656 0.963867 0.972656 0.975586 0.967773 0.968750 0.960938 0.953125 0.960938 0.958008 0.958984 0.963867 0.976562 0.981445 0.988281 0.983398 0.996094 0.996094 0.997070 0.994141 0.991211 0.996094 0.991211 0.991211 0.986328
0.971680 0.974609 0.982422 0.981445 0.980469 0.979492 0.986328 0.974609 0.972656 0.963867 0.968750 0.973633 0.976562 0.975586 0.981445 0.982422 0.989258 0.984375 0.993164 0.987305 0.976562 0.984375 0.983398 0.986328 0.985352 0.979492 0.959961 0.976562 0.975586 0.979492 0.975586 0.980469 0.971680 0.979492 0.963867 0.973633 0.984375 0.977539 0.976562 0.968750 0.963867 0.978516 0.977539 0.963867 0.970703 0.981445 0.977539 0.987305 0.989258 0.987305 0.992188 0.981445 0.984375 0.990234 0.986328 0.985352 0.986328 0.984375 0.985352 0.987305 0.990234 0.990234 0.983398 0.985352 0.986328 0.982422 0.985352 0.985352 0.986328 0.995117 0.993164 0.991211 0.996094 0.996094 0.999023 0.999023 0.999023 0.999023 0.999023 0.999023 0.999023 0.999023 0.999023 0.999023 0.998047 0.999023 0.999023 0.999023 0.999023 0.999023 0.999023 0.998047 0.998047 0.998047 0.998047 0.998047 0.999023 0.998047 0.999023 0.999023 0.998047 0.999023 0.999023 0.999023 0.999023 0.999023 0.999023 0.999023 0.999023 0.999023 0.999023 0.999023 0.999023 0.998047 0.993164 0.997070 0.994141 0.992188 0.990234 0.989258 0.978516 0.992188 0.991211 0.986328 0.985352 0.981445 0.968750 0.989258 0.999023 0.999023 0.995117 0.992188 0.996094 0.991211 0.989258 0.995117 0.997070 0.995117 0.996094 0.998047 0.997070 0.999023 0.999023 0.999023 0.999023 0.999023 0.999023 0.999023 0.999023 0.999023 0.999023 0.999023 0.999023 0.999023 0.999023 0.999023 0.999023 0.999023 0.996094 0.991211 0.991211 0.988281 0.983398 0.987305 0.987305 0.992188 0.996094 0.997070 0.995117 0.994141 0.992188 0.988281 0.988281 0.986328 0.991211 0.987305 0.985352 0.979492 0.991211 0.978516 0.983398 0.958008 0.969727 0.964844 0.956055 0.960938 0.944336 0.942383 0.931641 0.927734 0.922852 0.919922 0.912109 0.914062 0.908203 0.916992 0.927734 0.923828 0.927734 0.943359 0.957031 0.970703 0.980469 0.990234 0.991211 0.996094 0.999023 0.995117 0.987305 0.987305 0.971680 0.987305 0.973633 0.984375 0.987305 0.993164 0.999023 0.997070 0.999023 0.999023 0.999023 0.999023 0.997070 0.997070 0.997070 0.997070 0.995117 0.992188 0.991211 0.992188 0.988281 0.991211 0.995117 0.991211 0.996094 0.999023 0.998047 0.994141 0.991211 0.997070 0.989258 0.994141 0.989258 0.994141 0.990234 0.991211 0.989258 0.987305 0.995117 0.994141 0.999023 0.998047 0.998047 0.998047 0.999023 0.999023 0.997070 0.997070 0.996094 0.997070 0.997070 0.994141 0.989258 0.985352 0.988281 0.991211 0.985352 0.987305 0.985352 0.995117 0.991211 0.991211 0.991211 0.989258 0.995117 0.997070 0.993164 0.988281 0.984375 0.993164 0.987305 0.984375 0.989258 0.978516 0.977539 0.972656 0.978516 0.969727 0.968750 0.984375 0.981445 0.982422 0.988281 0.993164 0.988281 0.989258 0.990234 0.994141 0.987305 0.990234 0.986328 0.993164 0.993164 0.979492 0.983398 0.982422 0.977539 0.966797 0.967773 0.968750 0.961914 0.962891 0.965820 0.964844 0.963867 0.967773 0.966797 0.964844 0.971680 0.984375 0.989258 0.991211 0.993164 0.995117 0.994141 0.996094 0.997070 0.992188 0.993164 0.994141 0.992188
0.966797 0.969727 0.978516 0.988281 0.982422 0.982422 0.988281 0.982422 0.971680 0.973633 0.983398 0.971680 0.983398 0.979492 0.987305 0.988281 0.990234 0.990234 0.991211 0.990234 0.986328 0.986328 0.985352 0.975586 0.976562 0.982422 0.970703 0.980469 0.972656 0.986328 0.971680 0.981445 0.977539 0.979492 0.978516 0.978516 0.976562 0.969727 0.977539 0.969727 0.965820 0.974609 0.966797 0.969727 0.977539 0.981445 0.980469 0.991211 0.977539 0.983398 0.985352 0.991211 0.986328 0.993164 0.987305 0.984375 0.991211 0.992188 0.984375 0.987305 0.991211 0.989258 0.976562 0.985352 0.983398 0.981445 0.986328 0.987305 0.990234 0.988281 0.991211 0.994141 0.995117 0.996094 0.999023 0.999023 0.999023 0.999023 0.999023 0.999023 0.999023 0.999023 0.999023 0.999023 0.999023 0.999023 0.999023 0.999023 0.998047 0.998047 0.998047 0.999023 0.999023 0.999023 0.998047 0.998047 0.998047 0.999023 0.998047 0.999023 0.999023 0.999023 0.999023 0.999023 0.999023 0.999023 0.999023 0.999023 0.999023 0.999023 0.999023 0.999023 0.999023 0.997070 0.997070 0.989258 0.991211 0.990234 0.991211 0.989258 0.978516 0.984375 0.981445 0.981445 0.982422 0.976562 0.985352 0.988281 0.999023 0.997070 0.999023 0.999023 0.995117 0.992188 0.991211 0.994141 0.993164 0.996094 0.999023 0.998047 0.999023 0.999023 0.999023 0.999023 0.999023 0.999023 0.999023 0.999023 0.999023 0.999023 0.999023 0.999023 0.999023 0.999023 0.999023 0.999023 0.999023 0.996094 0.987305 0.985352 0.987305 0.990234 0.980469 0.988281 0.988281 0.993164 0.998047 0.995117 0.992188 0.994141 0.991211 0.991211 0.986328 0.989258 0.987305 0.984375 0.985352 0.983398 0.972656 0.978516 0.971680 0.976562 0.959961 0.951172 0.954102 0.946289 0.930664 0.935547 0.944336 0.931641 0.925781 0.905273 0.906250 0.913086 0.916992 0.926758 0.921875 0.934570 0.951172 0.965820 0.982422 0.976562 0.990234 0.995117 0.996094 0.999023 0.999023 0.999023 0.995117 0.992188 0.984375 0.990234 0.992188 0.995117 0.999023 0.999023 0.999023 0.999023 0.999023 0.999023 0.999023 0.999023 0.999023 0.997070 0.994141 0.992188 0.995117 0.995117 0.997070 0.994141 0.991211 0.994141 0.994141 0.997070 0.999023 0.999023 0.996094 0.996094 0.998047 0.989258 0.989258 0.991211 0.991211 0.989258 0.989258 0.988281 0.993164 0.994141 0.996094 0.997070 0.998047 0.998047 0.998047 0.999023 0.998047 0.999023 0.999023 0.995117 0.996094 0.988281 0.992188 0.987305 0.984375 0.977539 0.981445 0.978516 0.987305 0.992188 0.994141 0.992188 0.992188 0.986328 0.992188 0.996094 0.995117 0.993164 0.988281 0.991211 0.989258 0.992188 0.983398 0.981445 0.977539 0.969727 0.976562 0.975586 0.974609 0.976562 0.974609 0.982422 0.977539 0.980469 0.989258 0.992188 0.987305 0.986328 0.989258 0.994141 0.992188 0.990234 0.991211 0.986328 0.986328 0.989258 0.990234 0.987305 0.970703 0.978516 0.981445 0.980469 0.970703 0.972656 0.965820 0.974609 0.965820 0.976562 0.975586 0.973633 0.987305 0.983398 0.983398 0.988281 0.990234 0.984375 0.991211 0.994141 0.999023 0.996094 0.997070 0.994141 0.995117
0.971680 0.979492 0.976562 0.975586 0.982422 0.986328 0.987305 0.976562 0.979492 0.983398 0.972656 0.983398 0.977539 0.988281 0.992188 0.988281 0.990234 0.989258 0.991211 0.991211 0.990234 0.989258 0.985352 0.982422 0.972656 0.985352 0.978516 0.981445 0.980469 0.980469 0.986328 0.972656 0.980469 0.976562 0.974609 0.984375 0.977539 0.976562 0.973633 0.970703 0.966797 0.970703 0.978516 0.976562 0.975586 0.979492 0.975586 0.981445 0.982422 0.985352 0.992188 0.992188 0.992188 0.994141 0.991211 0.989258 0.988281 0.987305 0.989258 0.990234 0.984375 0.984375 0.986328 0.985352 0.986328 0.987305 0.991211 0.987305 0.988281 0.991211 0.994141 0.997070 0.995117 0.998047 0.999023 0.998047 0.999023 0.999023 0.999023 0.999023 0.999023 0.999023 0.999023 0.999023 0.999023 0.999023 0.999023 0.999023 0.999023 0.999023 0.999023 0.999023 0.999023 0.999023 0.999023 0.999023 0.999023 0.999023 0.999023 0.999023 0.999023 0.999023 0.999023 0.999023 0.999023 0.999023 0.999023 0.999023 0.999023 0.999023 0.998047 0.999023 0.995117 0.994141 0.994141 0.993164 0.993164 0.991211 0.988281 0.987305 0.980469 0.981445 0.983398 0.980469 0.978516 0.977539 0.974609 0.996094 0.999023 0.998047 0.993164 0.996094 0.997070 0.996094 0.996094 0.997070 0.997070 0.996094 0.999023 0.999023 0.999023 0.999023 0.999023 0.999023 0.999023 0.999023 0.999023 0.999023 0.999023 0.999023 0.999023 0.999023 0.999023 0.999023 0.999023 0.999023 0.997070 0.991211 0.986328 0.985352 0.985352 0.981445 0.978516 0.983398 0.989258 0.998047 0.996094 0.991211 0.992188 0.993164 0.992188 0.991211 0.993164 0.981445 0.990234 0.973633 0.982422 0.983398 0.978516 0.964844 0.970703 0.962891 0.964844 0.944336 0.929688 0.946289 0.956055 0.921875 0.909180 0.909180 0.917969 0.920898 0.892578 0.921875 0.912109 0.933594 0.926758 0.960938 0.961914 0.973633 0.975586 0.992188 0.995117 0.999023 0.999023 0.999023 0.999023 0.999023 0.999023 0.999023 0.999023 0.999023 0.999023 0.999023 0.999023 0.999023 0.999023 0.999023 0.999023 0.999023 0.999023 0.998047 0.998047 0.993164 0.997070 0.988281 0.992188 0.990234 0.998047 0.995117 0.998047 0.996094 0.997070 0.998047 0.998047 0.999023 0.995117 0.989258 0.988281 0.990234 0.987305 0.988281 0.986328 0.994141 0.990234 0.992188 0.996094 0.994141 0.994141 0.996094 0.999023 0.999023 0.999023 0.999023 0.999023 0.999023 0.993164 0.996094 0.999023 0.991211 0.991211 0.986328 0.983398 0.982422 0.989258 0.989258 0.984375 0.986328 0.994141 0.988281 0.987305 0.995117 0.990234 0.988281 0.991211 0.986328 0.990234 0.985352 0.988281 0.988281 0.985352 0.976562 0.979492 0.980469 0.975586 0.963867 0.970703 0.971680 0.976562 0.976562 0.977539 0.977539 0.986328 0.983398 0.991211 0.992188 0.990234 0.997070 0.991211 0.988281 0.986328 0.993164 0.991211 0.992188 0.993164 0.992188 0.984375 0.977539 0.985352 0.988281 0.983398 0.989258 0.980469 0.979492 0.981445 0.973633 0.982422 0.978516 0.975586 0.981445 0.985352 0.986328 0.988281 0.988281 0.988281 0.991211 0.993164 0.991211 0.998047 0.995117 0.994141
0.972656 0.983398 0.979492 0.982422 0.982422 0.979492 0.980469 0.984375 0.982422 0.984375 0.983398 0.970703 0.985352 0.984375 0.985352 0.992188 0.992188 0.991211 0.993164 0.990234 0.990234 0.978516 0.973633 0.985352 0.981445 0.979492 0.984375 0.968750 0.985352 0.982422 0.988281 0.990234 0.991211 0.986328 0.990234 0.976562 0.967773 0.971680 0.970703 0.972656 0.961914 0.959961 0.979492 0.968750 0.973633 0.983398 0.980469 0.978516 0.986328 0.988281 0.992188 0.994141 0.991211 0.996094 0.995117 0.994141 0.994141 0.994141 0.995117 0.990234 0.989258 0.990234 0.991211 0.991211 0.987305 0.990234 0.988281 0.986328 0.990234 0.993164 0.989258 0.998047 0.996094 0.998047 0.999023 0.999023 0.999023 0.999023 0.999023 0.999023 0.999023 0.999023 0.999023 0.999023 0.999023 0.999023 0.999023 0.999023 0.999023 0.999023 0.999023 0.999023 0.999023 0.999023 0.999023 0.999023 0.999023 0.999023 0.999023 0.999023 0.999023 0.999023 0.999023 0.999023 0.999023 0.999023 0.999023 0.999023 0.999023 0.999023 0.998047 0.996094 0.997070 0.994141 0.994141 0.989258 0.991211 0.991211 0.991211 0.988281 0.978516 0.981445 0.982422 0.981445 0.971680 0.983398 0.985352 0.997070 0.999023 0.998047 0.995117 0.997070 0.994141 0.995117 0.998047 0.997070 0.999023 0.999023 0.999023 0.999023 0.999023 0.999023 0.999023 0.999023 0.999023 0.999023 0.999023 0.999023 0.999023 0.999023 0.999023 0.999023 0.999023 0.999023 0.999023 0.998047 0.996094 0.993164 0.985352 0.982422 0.984375 0.987305 0.980469 0.982422 0.996094 0.999023 0.992188 0.990234 0.995117 0.994141 0.989258 0.988281 0.984375 0.979492 0.977539 0.980469 0.978516 0.968750 0.974609 0.975586 0.969727 0.964844 0.950195 0.944336 0.936523 0.930664 0.927734 0.917969 0.915039 0.916016 0.926758 0.902344 0.919922 0.922852 0.933594 0.946289 0.952148 0.954102 0.958984 0.983398 0.993164 0.995117 0.999023 0.999023 0.999023 0.999023 0.999023 0.999023 0.999023 0.999023 0.999023 0.999023 0.999023 0.999023 0.994141 0.991211 0.989258 0.997070 0.997070 0.997070 0.999023 0.997070 0.993164 0.991211 0.981445 0.988281 0.991211 0.992188 0.989258 0.992188 0.996094 0.994141 0.997070 0.995117 0.998047 0.999023 0.996094 0.995117 0.990234 0.992188 0.995117 0.984375 0.991211 0.992188 0.992188 0.993164 0.996094 0.997070 0.997070 0.997070 0.999023 0.999023 0.999023 0.999023 0.997070 0.997070 0.994141 0.994141 0.997070 0.998047 0.985352 0.992188 0.988281 0.982422 0.986328 0.981445 0.981445 0.987305 0.992188 0.994141 0.994141 0.991211 0.992188 0.991211 0.994141 0.994141 0.991211 0.988281 0.988281 0.989258 0.991211 0.984375 0.980469 0.986328 0.973633 0.980469 0.978516 0.972656 0.972656 0.977539 0.978516 0.982422 0.984375 0.990234 0.988281 0.989258 0.988281 0.978516 0.988281 0.979492 0.989258 0.987305 0.987305 0.989258 0.983398 0.987305 0.990234 0.990234 0.984375 0.980469 0.986328 0.988281 0.986328 0.978516 0.984375 0.974609 0.972656 0.987305 0.976562 0.982422 0.978516 0.972656 0.982422 0.982422 0.991211 0.993164 0.989258 0.992188 0.994141 0.995117 0.992188
0.979492 0.980469 0.985352 0.977539 0.988281 0.987305 0.978516 0.975586 0.984375 0.975586 0.986328 0.978516 0.992188 0.991211 0.990234 0.994141 0.993164 0.992188 0.991211 0.985352 0.980469 0.983398 0.983398 0.976562 0.970703 0.978516 0.981445 0.983398 0.984375 0.988281 0.987305 0.981445 0.985352 0.981445 0.979492 0.985352 0.982422 0.976562 0.958008 0.972656 0.967773 0.970703 0.977539 0.977539 0.976562 0.985352 0.987305 0.987305 0.977539 0.989258 0.991211 0.990234 0.987305 0.995117 0.991211 0.991211 0.993164 0.992188 0.994141 0.989258 0.991211 0.983398 0.984375 0.985352 0.989258 0.987305 0.988281 0.987305 0.993164 0.987305 0.992188 0.996094 0.993164 0.990234 0.995117 0.996094 0.996094 0.996094 0.998047 0.999023 0.998047 0.999023 0.999023 0.999023 0.998047 0.999023 0.999023 0.999023 0.999023 0.999023 0.999023 0.999023 0.999023 0.999023 0.999023 0.999023 0.999023 0.999023 0.999023 0.999023 0.999023 0.999023 0.999023 0.999023 0.999023 0.999023 0.999023 0.999023 0.999023 0.999023 0.997070 0.996094 0.997070 0.995117 0.990234 0.991211 0.988281 0.992188 0.992188 0.985352 0.986328 0.983398 0.976562 0.975586 0.969727 0.974609 0.985352 0.998047 0.999023 0.998047 0.996094 0.997070 0.998047 0.998047 0.999023 0.999023 0.999023 0.999023 0.999023 0.999023 0.999023 0.999023 0.999023 0.999023 0.999023 0.999023 0.999023 0.999023 0.999023 0.999023 0.999023 0.999023 0.999023 0.999023 0.999023 0.998047 0.986328 0.980469 0.976562 0.981445 0.986328 0.983398 0.987305 0.993164 0.996094 0.994141 0.994141 0.994141 0.992188 0.988281 0.981445 0.980469 0.982422 0.980469 0.975586 0.981445 0.977539 0.977539 0.963867 0.958984 0.956055 0.944336 0.944336 0.918945 0.919922 0.945312 0.930664 0.917969 0.913086 0.906250 0.892578 0.897461 0.928711 0.917969 0.924805 0.936523 0.950195 0.961914 0.964844 0.982422 0.992188 0.999023 0.999023 0.999023 0.999023 0.999023 0.999023 0.999023 0.999023 0.999023 0.999023 0.999023 0.996094 0.992188 0.990234 0.993164 0.989258 0.988281 0.990234 0.996094 0.999023 0.994141 0.989258 0.990234 0.984375 0.984375 0.987305 0.987305 0.988281 0.988281 0.992188 0.996094 0.993164 0.998047 0.997070 0.998047 0.991211 0.996094 0.989258 0.983398 0.989258 0.986328 0.991211 0.990234 0.988281 0.988281 0.990234 0.994141 0.994141 0.997070 0.999023 0.999023 0.999023 0.999023 0.993164 0.999023 0.991211 0.989258 0.998047 0.996094 0.990234 0.983398 0.986328 0.985352 0.987305 0.988281 0.990234 0.986328 0.994141 0.990234 0.991211 0.986328 0.992188 0.988281 0.989258 0.993164 0.995117 0.993164 0.988281 0.977539 0.989258 0.980469 0.983398 0.977539 0.972656 0.970703 0.963867 0.967773 0.978516 0.978516 0.985352 0.983398 0.986328 0.990234 0.994141 0.988281 0.985352 0.978516 0.979492 0.970703 0.984375 0.985352 0.981445 0.983398 0.978516 0.983398 0.979492 0.975586 0.981445 0.984375 0.984375 0.992188 0.984375 0.985352 0.983398 0.985352 0.977539 0.966797 0.970703 0.973633 0.977539 0.975586 0.977539 0.980469 0.980469 0.981445 0.981445 0.987305 0.989258 0.983398 0.990234
0.978516 0.983398 0.988281 0.980469 0.988281 0.987305 0.984375 0.985352 0.983398 0.986328 0.977539 0.985352 0.987305 0.993164 0.986328 0.991211 0.993164 0.982422 0.978516 0.983398 0.988281 0.980469 0.980469 0.970703 0.976562 0.974609 0.982422 0.984375 0.974609 0.978516 0.977539 0.976562 0.980469 0.979492 0.983398 0.970703 0.975586 0.972656 0.976562 0.968750 0.963867 0.974609 0.964844 0.972656 0.973633 0.972656 0.984375 0.978516 0.979492 0.986328 0.984375 0.981445 0.982422 0.988281 0.987305 0.984375 0.978516 0.983398 0.989258 0.982422 0.996094 0.984375 0.989258 0.985352 0.983398 0.988281 0.985352 0.985352 0.987305 0.986328 0.986328 0.989258 0.993164 0.991211 0.995117 0.992188 0.990234 0.995117 0.994141 0.993164 0.998047 0.999023 0.998047 0.999023 0.999023 0.999023 0.999023 0.998047 0.997070 0.997070 0.999023 0.999023 0.999023 0.999023 0.999023 0.999023 0.999023 0.999023 0.999023 0.999023 0.999023 0.999023 0.999023 0.999023 0.999023 0.999023 0.999023 0.999023 0.999023 0.999023 0.998047 0.997070 0.997070 0.993164 0.992188 0.987305 0.981445 0.988281 0.987305 0.981445 0.979492 0.979492 0.972656 0.970703 0.977539 0.978516 0.988281 0.999023 0.999023 0.996094 0.997070 0.998047 0.995117 0.999023 0.998047 0.999023 0.999023 0.999023 0.999023 0.999023 0.999023 0.999023 0.999023 0.999023 0.999023 0.999023 0.999023 0.999023 0.999023 0.999023 0.999023 0.999023 0.999023 0.999023 0.998047 0.993164 0.987305 0.976562 0.988281 0.983398 0.973633 0.984375 0.990234 0.997070 0.991211 0.991211 0.988281 0.989258 0.990234 0.990234 0.986328 0.983398 0.971680 0.979492 0.973633 0.967773 0.961914 0.959961 0.962891 0.950195 0.956055 0.943359 0.940430 0.935547 0.926758 0.928711 0.919922 0.912109 0.904297 0.911133 0.901367 0.888672 0.925781 0.933594 0.936523 0.950195 0.955078 0.961914 0.980469 0.988281 0.999023 0.999023 0.999023 0.999023 0.999023 0.999023 0.999023 0.999023 0.999023 0.999023 0.999023 0.999023 0.996094 0.994141 0.987305 0.982422 0.986328 0.986328 0.994141 0.996094 0.999023 0.995117 0.992188 0.988281 0.985352 0.986328 0.981445 0.979492 0.989258 0.990234 0.992188 0.994141 0.990234 0.996094 0.994141 0.998047 0.995117 0.988281 0.993164 0.986328 0.988281 0.986328 0.981445 0.987305 0.989258 0.989258 0.991211 0.995117 0.993164 0.999023 0.999023 0.999023 0.999023 0.999023 0.991211 0.996094 0.992188 0.994141 0.999023 0.992188 0.991211 0.992188 0.985352 0.985352 0.986328 0.990234 0.989258 0.994141 0.993164 0.993164 0.995117 0.994141 0.990234 0.988281 0.997070 0.992188 0.992188 0.991211 0.994141 0.980469 0.984375 0.972656 0.977539 0.976562 0.981445 0.973633 0.982422 0.977539 0.981445 0.968750 0.982422 0.983398 0.981445 0.980469 0.990234 0.988281 0.991211 0.979492 0.982422 0.979492 0.981445 0.972656 0.980469 0.983398 0.983398 0.979492 0.978516 0.981445 0.987305 0.985352 0.990234 0.975586 0.989258 0.976562 0.984375 0.975586 0.976562 0.965820 0.977539 0.967773 0.977539 0.978516 0.975586 0.983398 0.975586 0.987305 0.978516 0.978516 0.979492 0.985352 0.990234
0.974609 0.988281 0.987305 0.990234 0.990234 0.985352 0.973633 0.975586 0.981445 0.978516 0.977539 0.986328 0.990234 0.988281 0.994141 0.985352 0.995117 0.990234 0.984375 0.981445 0.969727 0.979492 0.972656 0.971680 0.970703 0.970703 0.978516 0.975586 0.980469 0.983398 0.975586 0.960938 0.979492 0.980469 0.965820 0.981445 0.977539 0.966797 0.971680 0.973633 0.973633 0.968750 0.964844 0.974609 0.972656 0.983398 0.976562 0.973633 0.976562 0.966797 0.977539 0.981445 0.982422 0.974609 0.981445 0.987305 0.982422 0.983398 0.978516 0.988281 0.987305 0.984375 0.988281 0.983398 0.980469 0.986328 0.985352 0.985352 0.984375 0.985352 0.986328 0.986328 0.991211 0.987305 0.993164 0.996094 0.995117 0.994141 0.990234 0.996094 0.995117 0.999023 0.999023 0.999023 0.998047 0.999023 0.998047 0.999023 0.998047 0.997070 0.998047 0.997070 0.996094 0.999023 0.999023 0.999023 0.999023 0.999023 0.999023 0.999023 0.999023 0.999023 0.999023 0.999023 0.999023 0.999023 0.999023 0.999023 0.998047 0.999023 0.997070 0.995117 0.994141 0.993164 0.988281 0.983398 0.987305 0.982422 0.986328 0.980469 0.977539 0.965820 0.971680 0.961914 0.976562 0.977539 0.994141 0.999023 0.999023 0.998047 0.996094 0.997070 0.997070 0.999023 0.999023 0.999023 0.999023 0.999023 0.999023 0.999023 0.999023 0.999023 0.999023 0.999023 0.999023 0.999023 0.999023 0.999023 0.999023 0.999023 0.999023 0.999023 0.999023 0.999023 0.988281 0.986328 0.976562 0.977539 0.974609 0.980469 0.976562 0.990234 0.997070 0.992188 0.992188 0.990234 0.991211 0.988281 0.986328 0.986328 0.981445 0.974609 0.976562 0.971680 0.974609 0.966797 0.971680 0.963867 0.963867 0.956055 0.963867 0.944336 0.927734 0.942383 0.928711 0.922852 0.912109 0.911133 0.922852 0.916016 0.929688 0.925781 0.941406 0.932617 0.933594 0.944336 0.956055 0.968750 0.972656 0.991211 0.998047 0.999023 0.999023 0.999023 0.998047 0.997070 0.998047 0.995117 0.999023 0.999023 0.999023 0.997070 0.997070 0.990234 0.986328 0.982422 0.979492 0.992188 0.991211 0.994141 0.999023 0.993164 0.990234 0.985352 0.984375 0.987305 0.983398 0.986328 0.987305 0.986328 0.980469 0.992188 0.994141 0.990234 0.997070 0.998047 0.992188 0.994141 0.986328 0.986328 0.984375 0.983398 0.979492 0.988281 0.986328 0.990234 0.987305 0.995117 0.997070 0.999023 0.999023 0.999023 0.999023 0.998047 0.995117 0.997070 0.994141 0.997070 0.996094 0.994141 0.995117 0.995117 0.990234 0.991211 0.986328 0.986328 0.990234 0.990234 0.990234 0.992188 0.991211 0.990234 0.993164 0.995117 0.997070 0.994141 0.990234 0.988281 0.995117 0.987305 0.982422 0.980469 0.988281 0.981445 0.969727 0.975586 0.967773 0.975586 0.969727 0.981445 0.978516 0.980469 0.986328 0.989258 0.990234 0.985352 0.982422 0.978516 0.976562 0.957031 0.982422 0.984375 0.981445 0.979492 0.976562 0.978516 0.975586 0.975586 0.982422 0.983398 0.981445 0.992188 0.992188 0.984375 0.984375 0.978516 0.972656 0.958008 0.965820 0.973633 0.963867 0.965820 0.964844 0.978516 0.975586 0.978516 0.983398 0.978516 0.979492 0.978516 0.988281
0.986328 0.986328 0.986328 0.986328 0.993164 0.986328 0.992188 0.983398 0.980469 0.987305 0.986328 0.983398 0.990234 0.989258 0.987305 0.981445 0.990234 0.983398 0.981445 0.982422 0.981445 0.979492 0.973633 0.967773 0.969727 0.969727 0.959961 0.972656 0.970703 0.972656 0.972656 0.978516 0.977539 0.977539 0.962891 0.978516 0.969727 0.972656 0.975586 0.970703 0.979492 0.968750 0.973633 0.967773 0.971680 0.974609 0.963867 0.975586 0.972656 0.972656 0.977539 0.962891 0.982422 0.972656 0.979492 0.977539 0.981445 0.985352 0.981445 0.986328 0.982422 0.986328 0.984375 0.980469 0.982422 0.982422 0.982422 0.992188 0.988281 0.986328 0.980469 0.986328 0.990234 0.985352 0.990234 0.989258 0.991211 0.994141 0.991211 0.993164 0.993164 0.999023 0.997070 0.997070 0.996094 0.998047 0.997070 0.998047 0.998047 0.998047 0.998047 0.999023 0.998047 0.995117 0.998047 0.999023 0.996094 0.995117 0.998047 0.997070 0.999023 0.999023 0.999023 0.999023 0.999023 0.999023 0.999023 0.999023 0.998047 0.996094 0.996094 0.990234 0.991211 0.994141 0.985352 0.988281 0.986328 0.984375 0.978516 0.972656 0.979492 0.969727 0.961914 0.977539 0.957031 0.985352 0.997070 0.999023 0.998047 0.997070 0.999023 0.998047 0.999023 0.998047 0.999023 0.999023 0.999023 0.999023 0.999023 0.999023 0.999023 0.999023 0.999023 0.999023 0.999023 0.999023 0.999023 0.999023 0.999023 0.999023 0.999023 0.999023 0.999023 0.994141 0.983398 0.986328 0.979492 0.984375 0.986328 0.980469 0.986328 0.992188 0.997070 0.991211 0.993164 0.988281 0.989258 0.990234 0.984375 0.980469 0.975586 0.963867 0.967773 0.969727 0.959961 0.963867 0.960938 0.965820 0.952148 0.947266 0.944336 0.929688 0.916016 0.909180 0.912109 0.910156 0.907227 0.914062 0.925781 0.910156 0.922852 0.926758 0.941406 0.944336 0.945312 0.951172 0.969727 0.978516 0.980469 0.997070 0.999023 0.999023 0.999023 0.999023 0.993164 0.992188 0.994141 0.997070 0.998047 0.999023 0.999023 0.995117 0.993164 0.991211 0.986328 0.980469 0.980469 0.981445 0.994141 0.994141 0.998047 0.996094 0.989258 0.985352 0.985352 0.978516 0.985352 0.987305 0.982422 0.987305 0.993164 0.986328 0.989258 0.996094 0.998047 0.999023 0.994141 0.996094 0.985352 0.985352 0.984375 0.988281 0.981445 0.991211 0.989258 0.987305 0.992188 0.991211 0.995117 0.997070 0.999023 0.999023 0.999023 0.998047 0.995117 0.997070 0.996094 0.997070 0.998047 0.996094 0.997070 0.993164 0.989258 0.992188 0.990234 0.992188 0.991211 0.991211 0.994141 0.994141 0.989258 0.989258 0.987305 0.994141 0.993164 0.994141 0.992188 0.995117 0.987305 0.989258 0.983398 0.983398 0.983398 0.978516 0.982422 0.980469 0.982422 0.965820 0.972656 0.972656 0.975586 0.984375 0.980469 0.987305 0.988281 0.981445 0.977539 0.977539 0.974609 0.970703 0.972656 0.970703 0.973633 0.971680 0.977539 0.974609 0.977539 0.980469 0.966797 0.986328 0.983398 0.986328 0.990234 0.986328 0.978516 0.982422 0.966797 0.970703 0.968750 0.973633 0.960938 0.973633 0.971680 0.977539 0.975586 0.980469 0.978516 0.975586 0.978516 0.989258 0.983398
0.992188 0.993164 0.983398 0.986328 0.988281 0.987305 0.983398 0.981445 0.973633 0.981445 0.992188 0.991211 0.988281 0.982422 0.983398 0.986328 0.985352 0.977539 0.985352 0.976562 0.973633 0.965820 0.961914 0.960938 0.957031 0.967773 0.963867 0.977539 0.968750 0.969727 0.974609 0.979492 0.973633 0.977539 0.973633 0.973633 0.978516 0.965820 0.960938 0.973633 0.973633 0.975586 0.969727 0.969727 0.974609 0.972656 0.974609 0.966797 0.968750 0.969727 0.968750 0.970703 0.980469 0.972656 0.975586 0.966797 0.980469 0.983398 0.984375 0.981445 0.981445 0.984375 0.981445 0.991211 0.979492 0.983398 0.980469 0.979492 0.985352 0.987305 0.982422 0.985352 0.992188 0.993164 0.984375 0.989258 0.987305 0.990234 0.995117 0.992188 0.995117 0.999023 0.999023 0.995117 0.998047 0.996094 0.993164 0.997070 0.997070 0.996094 0.996094 0.994141 0.996094 0.997070 0.998047 0.997070 0.996094 0.997070 0.997070 0.996094 0.997070 0.999023 0.998047 0.998047 0.998047 0.999023 0.999023 0.999023 0.999023 0.999023 0.995117 0.997070 0.995117 0.988281 0.982422 0.987305 0.983398 0.978516 0.978516 0.983398 0.977539 0.979492 0.961914 0.958008 0.980469 0.988281 0.995117 0.998047 0.999023 0.999023 0.999023 0.999023 0.999023 0.999023 0.999023 0.999023 0.999023 0.999023 0.999023 0.999023 0.999023 0.999023 0.999023 0.999023 0.999023 0.999023 0.999023 0.999023 0.999023 0.999023 0.999023 0.999023 0.996094 0.984375 0.981445 0.978516 0.983398 0.984375 0.980469 0.982422 0.997070 0.999023 0.990234 0.987305 0.989258 0.986328 0.986328 0.991211 0.985352 0.982422 0.972656 0.966797 0.966797 0.969727 0.949219 0.969727 0.963867 0.956055 0.947266 0.940430 0.939453 0.934570 0.924805 0.908203 0.897461 0.900391 0.915039 0.908203 0.904297 0.928711 0.925781 0.924805 0.953125 0.936523 0.957031 0.958984 0.968750 0.984375 0.994141 0.999023 0.999023 0.999023 0.998047 0.998047 0.993164 0.993164 0.990234 0.993164 0.997070 0.999023 0.998047 0.997070 0.987305 0.982422 0.988281 0.982422 0.987305 0.986328 0.987305 0.995117 0.998047 0.997070 0.992188 0.986328 0.983398 0.979492 0.977539 0.983398 0.984375 0.988281 0.989258 0.989258 0.992188 0.992188 0.996094 0.999023 0.997070 0.994141 0.988281 0.983398 0.986328 0.991211 0.991211 0.985352 0.989258 0.991211 0.984375 0.995117 0.998047 0.999023 0.999023 0.998047 0.999023 0.997070 0.996094 0.995117 0.997070 0.994141 0.997070 0.995117 0.993164 0.995117 0.988281 0.994141 0.995117 0.995117 0.989258 0.994141 0.990234 0.992188 0.994141 0.990234 0.992188 0.995117 0.990234 0.993164 0.992188 0.997070 0.987305 0.991211 0.987305 0.987305 0.972656 0.976562 0.981445 0.981445 0.973633 0.975586 0.971680 0.963867 0.977539 0.979492 0.992188 0.986328 0.991211 0.989258 0.980469 0.979492 0.974609 0.975586 0.971680 0.971680 0.968750 0.975586 0.972656 0.976562 0.971680 0.979492 0.982422 0.979492 0.989258 0.986328 0.981445 0.977539 0.987305 0.969727 0.972656 0.966797 0.974609 0.959961 0.970703 0.961914 0.968750 0.969727 0.966797 0.979492 0.979492 0.977539 0.981445 0.981445 0.982422
0.991211 0.984375 0.982422 0.979492 0.977539 0.977539 0.981445 0.984375 0.976562 0.981445 0.982422 0.985352 0.988281 0.990234 0.985352 0.984375 0.985352 0.981445 0.976562 0.978516 0.973633 0.975586 0.958984 0.953125 0.974609 0.958008 0.960938 0.961914 0.975586 0.975586 0.976562 0.974609 0.972656 0.976562 0.977539 0.974609 0.969727 0.962891 0.967773 0.966797 0.975586 0.974609 0.975586 0.980469 0.966797 0.968750 0.966797 0.974609 0.971680 0.970703 0.958984 0.967773 0.981445 0.971680 0.982422 0.973633 0.978516 0.980469 0.982422 0.978516 0.979492 0.984375 0.986328 0.986328 0.986328 0.977539 0.988281 0.987305 0.986328 0.979492 0.988281 0.985352 0.980469 0.987305 0.993164 0.990234 0.988281 0.991211 0.988281 0.992188 0.997070 0.995117 0.996094 0.994141 0.994141 0.999023 0.993164 0.996094 0.996094 0.997070 0.996094 0.992188 0.994141 0.995117 0.995117 0.993164 0.995117 0.994141 0.997070 0.995117 0.997070 0.998047 0.999023 0.998047 0.998047 0.998047 0.999023 0.998047 0.997070 0.995117 0.995117 0.995117 0.993164 0.988281 0.988281 0.987305 0.981445 0.980469 0.982422 0.984375 0.975586 0.968750 0.962891 0.958984 0.978516 0.989258 0.999023 0.999023 0.999023 0.999023 0.999023 0.999023 0.999023 0.999023 0.999023 0.999023 0.999023 0.999023 0.999023 0.999023 0.999023 0.999023 0.999023 0.999023 0.999023 0.999023 0.999023 0.999023 0.999023 0.999023 0.999023 0.999023 0.993164 0.979492 0.985352 0.979492 0.982422 0.979492 0.982422 0.987305 0.999023 0.997070 0.989258 0.990234 0.988281 0.989258 0.977539 0.984375 0.975586 0.980469 0.971680 0.972656 0.955078 0.966797 0.968750 0.966797 0.962891 0.959961 0.937500 0.950195 0.930664 0.932617 0.922852 0.915039 0.920898 0.930664 0.901367 0.908203 0.931641 0.926758 0.938477 0.948242 0.945312 0.945312 0.951172 0.957031 0.977539 0.985352 0.995117 0.999023 0.999023 0.999023 0.997070 0.995117 0.994141 0.990234 0.996094 0.997070 0.998047 0.999023 0.999023 0.998047 0.986328 0.985352 0.984375 0.987305 0.982422 0.985352 0.993164 0.999023 0.999023 0.995117 0.997070 0.989258 0.980469 0.985352 0.980469 0.982422 0.988281 0.988281 0.985352 0.987305 0.991211 0.994141 0.999023 0.999023 0.998047 0.994141 0.988281 0.987305 0.990234 0.990234 0.990234 0.985352 0.989258 0.990234 0.986328 0.994141 0.996094 0.998047 0.999023 0.999023 0.999023 0.996094 0.996094 0.992188 0.998047 0.995117 0.997070 0.996094 0.998047 0.995117 0.992188 0.994141 0.993164 0.996094 0.995117 0.990234 0.985352 0.992188 0.989258 0.994141 0.989258 0.998047 0.993164 0.996094 0.997070 0.993164 0.993164 0.992188 0.988281 0.980469 0.980469 0.970703 0.968750 0.973633 0.978516 0.982422 0.974609 0.979492 0.979492 0.982422 0.988281 0.990234 0.992188 0.984375 0.984375 0.982422 0.977539 0.976562 0.978516 0.970703 0.967773 0.966797 0.983398 0.976562 0.969727 0.975586 0.978516 0.975586 0.974609 0.986328 0.983398 0.973633 0.970703 0.978516 0.959961 0.966797 0.963867 0.970703 0.983398 0.965820 0.971680 0.978516 0.970703 0.971680 0.979492 0.975586 0.986328 0.966797 0.982422
0.985352 0.988281 0.980469 0.977539 0.977539 0.978516 0.974609 0.977539 0.978516 0.982422 0.982422 0.985352 0.983398 0.987305 0.982422 0.985352 0.981445 0.979492 0.975586 0.969727 0.969727 0.970703 0.956055 0.969727 0.969727 0.962891 0.964844 0.964844 0.971680 0.963867 0.970703 0.977539 0.967773 0.971680 0.975586 0.978516 0.972656 0.974609 0.978516 0.974609 0.970703 0.968750 0.977539 0.983398 0.954102 0.970703 0.973633 0.972656 0.961914 0.962891 0.975586 0.955078 0.977539 0.966797 0.973633 0.970703 0.979492 0.977539 0.977539 0.981445 0.983398 0.976562 0.980469 0.985352 0.982422 0.988281 0.988281 0.983398 0.985352 0.986328 0.987305 0.985352 0.989258 0.985352 0.986328 0.990234 0.991211 0.985352 0.987305 0.992188 0.994141 0.993164 0.994141 0.993164 0.995117 0.996094 0.992188 0.994141 0.993164 0.995117 0.995117 0.991211 0.991211 0.993164 0.994141 0.991211 0.993164 0.996094 0.997070 0.995117 0.994141 0.995117 0.995117 0.997070 0.999023 0.997070 0.999023 0.998047 0.998047 0.994141 0.988281 0.985352 0.986328 0.989258 0.987305 0.980469 0.982422 0.980469 0.977539 0.976562 0.965820 0.969727 0.963867 0.975586 0.985352 0.989258 0.999023 0.999023 0.999023 0.999023 0.999023 0.999023 0.999023 0.999023 0.999023 0.999023 0.999023 0.999023 0.999023 0.999023 0.999023 0.999023 0.999023 0.999023 0.999023 0.999023 0.999023 0.999023 0.999023 0.999023 0.999023 0.986328 0.990234 0.981445 0.974609 0.977539 0.989258 0.985352 0.991211 0.997070 0.997070 0.993164 0.985352 0.986328 0.987305 0.985352 0.982422 0.978516 0.982422 0.967773 0.963867 0.959961 0.954102 0.970703 0.956055 0.951172 0.939453 0.947266 0.941406 0.941406 0.916992 0.918945 0.907227 0.921875 0.912109 0.915039 0.918945 0.907227 0.926758 0.933594 0.948242 0.958008 0.949219 0.959961 0.971680 0.966797 0.968750 0.990234 0.999023 0.999023 0.999023 0.999023 0.996094 0.994141 0.994141 0.993164 0.990234 0.986328 0.998047 0.999023 0.998047 0.989258 0.987305 0.982422 0.979492 0.984375 0.985352 0.989258 0.994141 0.998047 0.999023 0.997070 0.993164 0.986328 0.982422 0.990234 0.981445 0.979492 0.991211 0.990234 0.989258 0.992188 0.993164 0.998047 0.996094 0.999023 0.997070 0.993164 0.985352 0.990234 0.983398 0.992188 0.987305 0.981445 0.983398 0.989258 0.995117 0.994141 0.999023 0.998047 0.999023 0.999023 0.998047 0.998047 0.989258 0.997070 0.996094 0.998047 0.998047 0.997070 0.998047 0.997070 0.998047 0.997070 0.999023 0.994141 0.993164 0.991211 0.991211 0.990234 0.989258 0.989258 0.991211 0.996094 0.996094 0.993164 0.995117 0.997070 0.991211 0.989258 0.990234 0.988281 0.983398 0.977539 0.982422 0.977539 0.977539 0.972656 0.979492 0.969727 0.984375 0.987305 0.995117 0.983398 0.981445 0.973633 0.980469 0.979492 0.972656 0.974609 0.979492 0.969727 0.970703 0.969727 0.974609 0.974609 0.964844 0.967773 0.982422 0.980469 0.987305 0.976562 0.982422 0.975586 0.968750 0.966797 0.968750 0.969727 0.973633 0.971680 0.970703 0.962891 0.976562 0.964844 0.971680 0.966797 0.974609 0.987305 0.981445 0.978516 0.986328
0.990234 0.984375 0.983398 0.983398 0.979492 0.973633 0.961914 0.967773 0.978516 0.979492 0.977539 0.984375 0.979492 0.983398 0.987305 0.982422 0.978516 0.974609 0.981445 0.973633 0.974609 0.964844 0.968750 0.958008 0.952148 0.961914 0.970703 0.958008 0.971680 0.964844 0.966797 0.974609 0.963867 0.975586 0.969727 0.976562 0.972656 0.975586 0.970703 0.978516 0.970703 0.976562 0.970703 0.976562 0.965820 0.972656 0.974609 0.957031 0.959961 0.969727 0.959961 0.953125 0.962891 0.971680 0.975586 0.967773 0.970703 0.973633 0.977539 0.978516 0.971680 0.980469 0.980469 0.972656 0.981445 0.980469 0.973633 0.986328 0.981445 0.987305 0.980469 0.984375 0.990234 0.989258 0.985352 0.987305 0.991211 0.993164 0.993164 0.993164 0.991211 0.995117 0.992188 0.996094 0.993164 0.996094 0.994141 0.988281 0.989258 0.985352 0.989258 0.988281 0.992188 0.989258 0.989258 0.996094 0.992188 0.997070 0.997070 0.990234 0.991211 0.992188 0.994141 0.994141 0.996094 0.997070 0.994141 0.996094 0.995117 0.997070 0.989258 0.984375 0.992188 0.986328 0.980469 0.988281 0.978516 0.968750 0.979492 0.979492 0.969727 0.976562 0.968750 0.981445 0.977539 0.998047 0.999023 0.999023 0.999023 0.999023 0.999023 0.999023 0.999023 0.999023 0.999023 0.999023 0.999023 0.999023 0.999023 0.999023 0.999023 0.999023 0.999023 0.999023 0.999023 0.999023 0.999023 0.999023 0.999023 0.999023 0.992188 0.984375 0.983398 0.986328 0.979492 0.986328 0.989258 0.990234 0.999023 0.998047 0.989258 0.987305 0.984375 0.986328 0.983398 0.984375 0.977539 0.971680 0.975586 0.963867 0.968750 0.966797 0.960938 0.957031 0.966797 0.949219 0.948242 0.932617 0.922852 0.937500 0.929688 0.922852 0.896484 0.921875 0.912109 0.927734 0.900391 0.939453 0.938477 0.947266 0.944336 0.951172 0.954102 0.974609 0.964844 0.977539 0.979492 0.996094 0.999023 0.999023 0.998047 0.995117 0.995117 0.997070 0.988281 0.993164 0.989258 0.992188 0.995117 0.999023 0.995117 0.988281 0.984375 0.978516 0.985352 0.984375 0.991211 0.988281 0.998047 0.996094 0.998047 0.999023 0.994141 0.986328 0.986328 0.982422 0.988281 0.985352 0.989258 0.994141 0.989258 0.991211 0.994141 0.995117 0.998047 0.999023 0.999023 0.998047 0.990234 0.991211 0.987305 0.986328 0.982422 0.996094 0.988281 0.988281 0.993164 0.997070 0.996094 0.998047 0.999023 0.999023 0.999023 0.995117 0.995117 0.997070 0.994141 0.999023 0.997070 0.999023 0.997070 0.998047 0.998047 0.996094 0.998047 0.997070 0.995117 0.992188 0.989258 0.994141 0.994141 0.992188 0.989258 0.993164 0.994141 0.998047 0.996094 0.996094 0.995117 0.995117 0.992188 0.987305 0.981445 0.977539 0.979492 0.976562 0.969727 0.978516 0.974609 0.980469 0.975586 0.990234 0.996094 0.996094 0.983398 0.985352 0.982422 0.982422 0.978516 0.978516 0.966797 0.969727 0.976562 0.973633 0.970703 0.975586 0.973633 0.975586 0.987305 0.982422 0.995117 0.989258 0.983398 0.980469 0.971680 0.974609 0.963867 0.969727 0.971680 0.972656 0.972656 0.965820 0.967773 0.976562 0.975586 0.972656 0.972656 0.979492 0.979492 0.981445 0.975586
0.981445 0.978516 0.984375 0.980469 0.970703 0.972656 0.959961 0.978516 0.978516 0.979492 0.982422 0.978516 0.985352 0.978516 0.982422 0.974609 0.973633 0.981445 0.972656 0.972656 0.971680 0.958984 0.957031 0.949219 0.961914 0.951172 0.961914 0.963867 0.971680 0.961914 0.975586 0.969727 0.978516 0.967773 0.977539 0.969727 0.970703 0.966797 0.975586 0.967773 0.978516 0.970703 0.960938 0.966797 0.970703 0.964844 0.964844 0.965820 0.956055 0.958984 0.948242 0.958984 0.959961 0.959961 0.971680 0.967773 0.967773 0.983398 0.971680 0.978516 0.979492 0.980469 0.976562 0.977539 0.976562 0.980469 0.983398 0.981445 0.978516 0.979492 0.994141 0.990234 0.988281 0.986328 0.992188 0.988281 0.991211 0.993164 0.989258 0.993164 0.993164 0.992188 0.992188 0.990234 0.993164 0.980469 0.987305 0.987305 0.980469 0.982422 0.986328 0.986328 0.985352 0.983398 0.985352 0.987305 0.986328 0.988281 0.987305 0.990234 0.989258 0.995117 0.994141 0.994141 0.995117 0.993164 0.993164 0.988281 0.990234 0.991211 0.983398 0.987305 0.983398 0.984375 0.972656 0.972656 0.974609 0.976562 0.978516 0.970703 0.971680 0.970703 0.969727 0.979492 0.992188 0.999023 0.999023 0.999023 0.999023 0.999023 0.999023 0.999023 0.999023 0.999023 0.999023 0.999023 0.999023 0.999023 0.999023 0.999023 0.999023 0.999023 0.999023 0.999023 0.999023 0.999023 0.999023 0.999023 0.999023 0.998047 0.992188 0.981445 0.987305 0.985352 0.990234 0.987305 0.995117 0.995117 0.999023 0.995117 0.991211 0.988281 0.985352 0.987305 0.980469 0.973633 0.972656 0.956055 0.968750 0.972656 0.964844 0.953125 0.958008 0.946289 0.961914 0.946289 0.930664 0.918945 0.941406 0.918945 0.915039 0.912109 0.888672 0.919922 0.898438 0.914062 0.937500 0.921875 0.928711 0.950195 0.955078 0.952148 0.963867 0.963867 0.977539 0.981445 0.987305 0.999023 0.999023 0.997070 0.998047 0.998047 0.996094 0.994141 0.994141 0.990234 0.992188 0.991211 0.991211 0.999023 0.999023 0.989258 0.987305 0.977539 0.984375 0.990234 0.985352 0.993164 0.997070 0.997070 0.999023 0.997070 0.994141 0.991211 0.986328 0.981445 0.986328 0.977539 0.986328 0.986328 0.984375 0.993164 0.994141 0.998047 0.999023 0.999023 0.998047 0.997070 0.995117 0.988281 0.984375 0.985352 0.988281 0.990234 0.991211 0.992188 0.993164 0.997070 0.997070 0.999023 0.999023 0.998047 0.997070 0.993164 0.996094 0.993164 0.995117 0.997070 0.998047 0.998047 0.999023 0.999023 0.998047 0.996094 0.998047 0.996094 0.996094 0.993164 0.995117 0.992188 0.991211 0.987305 0.996094 0.992188 0.991211 0.997070 0.997070 0.999023 0.997070 0.997070 0.992188 0.985352 0.982422 0.985352 0.979492 0.973633 0.967773 0.977539 0.975586 0.987305 0.988281 0.993164 0.992188 0.991211 0.984375 0.976562 0.988281 0.981445 0.975586 0.983398 0.977539 0.971680 0.970703 0.965820 0.978516 0.976562 0.970703 0.978516 0.976562 0.979492 0.983398 0.985352 0.980469 0.983398 0.980469 0.972656 0.964844 0.964844 0.962891 0.970703 0.966797 0.967773 0.960938 0.971680 0.976562 0.969727 0.966797 0.978516 0.977539 0.977539 0.984375
0.981445 0.981445 0.979492 0.969727 0.977539 0.974609 0.966797 0.973633 0.970703 0.981445 0.983398 0.982422 0.978516 0.980469 0.975586 0.975586 0.981445 0.982422 0.974609 0.975586 0.958984 0.953125 0.947266 0.957031 0.942383 0.960938 0.959961 0.967773 0.959961 0.965820 0.973633 0.969727 0.974609 0.981445 0.969727 0.961914 0.973633 0.972656 0.973633 0.969727 0.968750 0.970703 0.970703 0.977539 0.969727 0.975586 0.961914 0.970703 0.967773 0.965820 0.957031 0.961914 0.956055 0.963867 0.959961 0.972656 0.964844 0.967773 0.973633 0.976562 0.978516 0.981445 0.970703 0.971680 0.980469 0.981445 0.981445 0.982422 0.983398 0.981445 0.970703 0.985352 0.987305 0.979492 0.985352 0.987305 0.988281 0.990234 0.989258 0.996094 0.991211 0.993164 0.990234 0.986328 0.987305 0.977539 0.987305 0.977539 0.978516 0.986328 0.977539 0.983398 0.986328 0.986328 0.989258 0.988281 0.988281 0.979492 0.995117 0.989258 0.990234 0.988281 0.987305 0.987305 0.994141 0.993164 0.992188 0.986328 0.989258 0.985352 0.987305 0.990234 0.977539 0.985352 0.974609 0.983398 0.973633 0.977539 0.972656 0.973633 0.961914 0.969727 0.978516 0.979492 0.993164 0.999023 0.999023 0.999023 0.999023 0.999023 0.999023 0.999023 0.999023 0.999023 0.999023 0.999023 0.999023 0.999023 0.999023 0.999023 0.999023 0.999023 0.999023 0.999023 0.999023 0.999023 0.999023 0.999023 0.998047 0.992188 0.989258 0.990234 0.984375 0.986328 0.993164 0.989258 0.996094 0.997070 0.999023 0.994141 0.987305 0.987305 0.976562 0.985352 0.986328 0.980469 0.970703 0.965820 0.955078 0.958984 0.959961 0.954102 0.952148 0.960938 0.946289 0.937500 0.924805 0.940430 0.936523 0.923828 0.922852 0.919922 0.918945 0.923828 0.931641 0.938477 0.933594 0.935547 0.945312 0.938477 0.954102 0.982422 0.971680 0.977539 0.984375 0.981445 0.997070 0.999023 0.999023 0.997070 0.999023 0.997070 0.997070 0.996094 0.991211 0.995117 0.990234 0.995117 0.993164 0.998047 0.997070 0.995117 0.984375 0.987305 0.988281 0.985352 0.996094 0.997070 0.996094 0.998047 0.999023 0.999023 0.994141 0.988281 0.987305 0.988281 0.978516 0.988281 0.990234 0.987305 0.988281 0.992188 0.995117 0.998047 0.997070 0.999023 0.999023 0.999023 0.997070 0.987305 0.992188 0.990234 0.993164 0.992188 0.996094 0.994141 0.992188 0.997070 0.998047 0.999023 0.999023 0.999023 0.997070 0.994141 0.996094 0.996094 0.994141 0.997070 0.999023 0.999023 0.999023 0.999023 0.999023 0.999023 0.999023 0.996094 0.997070 0.993164 0.998047 0.994141 0.994141 0.993164 0.992188 0.991211 0.995117 0.998047 0.999023 0.999023 0.998047 0.996094 0.994141 0.992188 0.985352 0.984375 0.973633 0.977539 0.979492 0.983398 0.977539 0.985352 0.988281 0.990234 0.992188 0.988281 0.985352 0.984375 0.992188 0.982422 0.978516 0.980469 0.974609 0.981445 0.972656 0.963867 0.971680 0.976562 0.974609 0.974609 0.989258 0.982422 0.984375 0.984375 0.976562 0.983398 0.981445 0.972656 0.969727 0.972656 0.977539 0.961914 0.968750 0.980469 0.975586 0.967773 0.976562 0.983398 0.964844 0.981445 0.978516 0.969727 0.978516
0.991211 0.982422 0.979492 0.969727 0.975586 0.980469 0.967773 0.979492 0.973633 0.979492 0.975586 0.978516 0.987305 0.976562 0.984375 0.980469 0.979492 0.976562 0.981445 0.973633 0.965820 0.965820 0.951172 0.949219 0.959961 0.955078 0.943359 0.962891 0.952148 0.962891 0.976562 0.974609 0.977539 0.977539 0.980469 0.974609 0.976562 0.969727 0.972656 0.967773 0.967773 0.972656 0.973633 0.968750 0.964844 0.971680 0.961914 0.960938 0.958008 0.964844 0.954102 0.958008 0.961914 0.964844 0.964844 0.968750 0.966797 0.970703 0.970703 0.966797 0.964844 0.965820 0.968750 0.971680 0.974609 0.958984 0.972656 0.975586 0.982422 0.975586 0.985352 0.978516 0.978516 0.991211 0.982422 0.989258 0.989258 0.985352 0.990234 0.990234 0.990234 0.992188 0.991211 0.992188 0.986328 0.989258 0.984375 0.982422 0.979492 0.985352 0.978516 0.980469 0.986328 0.979492 0.974609 0.986328 0.970703 0.985352 0.979492 0.984375 0.980469 0.988281 0.982422 0.982422 0.991211 0.988281 0.985352 0.988281 0.980469 0.976562 0.982422 0.985352 0.982422 0.976562 0.982422 0.974609 0.986328 0.970703 0.958008 0.973633 0.973633 0.975586 0.977539 0.985352 0.998047 0.999023 0.999023 0.999023 0.999023 0.999023 0.999023 0.999023 0.999023 0.999023 0.999023 0.999023 0.999023 0.999023 0.999023 0.999023 0.999023 0.999023 0.999023 0.999023 0.999023 0.999023 0.999023 0.999023 0.998047 0.993164 0.989258 0.985352 0.988281 0.985352 0.991211 0.990234 0.997070 0.999023 0.991211 0.986328 0.985352 0.982422 0.980469 0.975586 0.971680 0.982422 0.960938 0.962891 0.966797 0.954102 0.950195 0.950195 0.960938 0.939453 0.949219 0.931641 0.948242 0.921875 0.930664 0.917969 0.915039 0.912109 0.933594 0.932617 0.926758 0.934570 0.932617 0.959961 0.946289 0.955078 0.957031 0.961914 0.973633 0.986328 0.982422 0.998047 0.999023 0.999023 0.999023 0.998047 0.999023 0.996094 0.995117 0.992188 0.998047 0.989258 0.987305 0.991211 0.993164 0.997070 0.997070 0.991211 0.988281 0.987305 0.992188 0.992188 0.989258 0.999023 0.999023 0.999023 0.999023 0.999023 0.999023 0.996094 0.990234 0.988281 0.986328 0.987305 0.994141 0.984375 0.994141 0.993164 0.995117 0.997070 0.999023 0.999023 0.999023 0.999023 0.996094 0.993164 0.986328 0.991211 0.993164 0.995117 0.990234 0.992188 0.996094 0.999023 0.998047 0.999023 0.999023 0.999023 0.997070 0.998047 0.997070 0.997070 0.998047 0.999023 0.999023 0.999023 0.999023 0.999023 0.999023 0.999023 0.999023 0.996094 0.993164 0.995117 0.995117 0.995117 0.992188 0.996094 0.999023 0.993164 0.998047 0.998047 0.997070 0.997070 0.998047 0.996094 0.994141 0.987305 0.985352 0.979492 0.987305 0.987305 0.981445 0.984375 0.989258 0.991211 0.990234 0.996094 0.992188 0.990234 0.992188 0.992188 0.990234 0.975586 0.985352 0.980469 0.980469 0.975586 0.972656 0.975586 0.968750 0.964844 0.967773 0.974609 0.982422 0.988281 0.984375 0.980469 0.986328 0.975586 0.981445 0.978516 0.969727 0.960938 0.971680 0.968750 0.975586 0.980469 0.978516 0.975586 0.977539 0.978516 0.973633 0.981445 0.984375 0.980469 0.982422
0.984375 0.985352 0.979492 0.984375 0.970703 0.971680 0.971680 0.973633 0.976562 0.979492 0.968750 0.975586 0.980469 0.983398 0.984375 0.975586 0.979492 0.977539 0.970703 0.952148 0.954102 0.970703 0.950195 0.952148 0.958984 0.954102 0.960938 0.965820 0.969727 0.971680 0.967773 0.961914 0.964844 0.970703 0.972656 0.968750 0.963867 0.976562 0.971680 0.974609 0.961914 0.964844 0.974609 0.960938 0.958008 0.969727 0.960938 0.949219 0.962891 0.961914 0.946289 0.954102 0.964844 0.971680 0.967773 0.956055 0.967773 0.958008 0.966797 0.963867 0.979492 0.963867 0.968750 0.970703 0.973633 0.972656 0.977539 0.972656 0.975586 0.984375 0.979492 0.979492 0.984375 0.983398 0.982422 0.987305 0.983398 0.987305 0.988281 0.989258 0.991211 0.991211 0.995117 0.990234 0.987305 0.987305 0.983398 0.986328 0.986328 0.984375 0.971680 0.977539 0.980469 0.985352 0.980469 0.978516 0.983398 0.984375 0.991211 0.980469 0.983398 0.981445 0.984375 0.987305 0.982422 0.981445 0.973633 0.981445 0.978516 0.978516 0.972656 0.978516 0.980469 0.976562 0.977539 0.978516 0.978516 0.976562 0.974609 0.976562 0.977539 0.983398 0.974609 0.989258 0.999023 0.999023 0.999023 0.999023 0.999023 0.999023 0.999023 0.999023 0.999023 0.999023 0.999023 0.999023 0.999023 0.999023 0.999023 0.999023 0.999023 0.999023 0.999023 0.999023 0.999023 0.999023 0.999023 0.998047 0.998047 0.995117 0.992188 0.986328 0.988281 0.992188 0.994141 0.997070 0.999023 0.993164 0.993164 0.986328 0.992188 0.984375 0.980469 0.979492 0.972656 0.968750 0.971680 0.963867 0.953125 0.954102 0.948242 0.950195 0.946289 0.946289 0.934570 0.932617 0.933594 0.916016 0.909180 0.916992 0.915039 0.920898 0.926758 0.924805 0.923828 0.945312 0.951172 0.958008 0.968750 0.967773 0.978516 0.975586 0.977539 0.991211 0.995117 0.999023 0.999023 0.999023 0.999023 0.997070 0.999023 0.995117 0.997070 0.997070 0.993164 0.993164 0.999023 0.992188 0.995117 0.998047 0.999023 0.998047 0.991211 0.993164 0.990234 0.993164 0.998047 0.998047 0.999023 0.999023 0.999023 0.999023 0.999023 0.998047 0.996094 0.997070 0.991211 0.986328 0.994141 0.993164 0.992188 0.997070 0.998047 0.999023 0.999023 0.999023 0.999023 0.998047 0.995117 0.998047 0.997070 0.991211 0.991211 0.990234 0.992188 0.998047 0.999023 0.998047 0.999023 0.999023 0.999023 0.999023 0.999023 0.999023 0.999023 0.998047 0.999023 0.999023 0.999023 0.999023 0.999023 0.999023 0.999023 0.999023 0.999023 0.998047 0.998047 0.993164 0.996094 0.996094 0.998047 0.998047 0.998047 0.997070 0.996094 0.998047 0.999023 0.998047 0.999023 0.995117 0.997070 0.994141 0.990234 0.989258 0.989258 0.987305 0.978516 0.986328 0.987305 0.992188 0.993164 0.996094 0.993164 0.991211 0.988281 0.993164 0.986328 0.982422 0.984375 0.989258 0.976562 0.980469 0.982422 0.976562 0.976562 0.978516 0.980469 0.986328 0.985352 0.984375 0.990234 0.985352 0.986328 0.986328 0.978516 0.982422 0.982422 0.979492 0.974609 0.975586 0.978516 0.980469 0.977539 0.979492 0.972656 0.977539 0.984375 0.979492 0.983398 0.985352 0.978516
0.985352 0.983398 0.981445 0.973633 0.979492 0.968750 0.974609 0.970703 0.972656 0.983398 0.978516 0.988281 0.984375 0.982422 0.975586 0.978516 0.973633 0.964844 0.966797 0.970703 0.957031 0.953125 0.959961 0.944336 0.957031 0.960938 0.956055 0.958008 0.960938 0.972656 0.963867 0.980469 0.971680 0.976562 0.975586 0.977539 0.979492 0.966797 0.959961 0.969727 0.966797 0.973633 0.966797 0.969727 0.968750 0.961914 0.958984 0.962891 0.944336 0.950195 0.952148 0.952148 0.963867 0.951172 0.958008 0.963867 0.957031 0.963867 0.970703 0.969727 0.967773 0.974609 0.972656 0.965820 0.959961 0.963867 0.975586 0.960938 0.972656 0.980469 0.976562 0.988281 0.981445 0.989258 0.983398 0.984375 0.986328 0.979492 0.990234 0.992188 0.984375 0.996094 0.991211 0.996094 0.986328 0.990234 0.986328 0.983398 0.989258 0.980469 0.983398 0.982422 0.980469 0.982422 0.976562 0.979492 0.973633 0.985352 0.973633 0.982422 0.977539 0.976562 0.982422 0.978516 0.983398 0.983398 0.982422 0.984375 0.982422 0.971680 0.971680 0.978516 0.983398 0.984375 0.971680 0.973633 0.978516 0.965820 0.966797 0.966797 0.964844 0.976562 0.987305 0.995117 0.999023 0.999023 0.999023 0.999023 0.998047 0.998047 0.999023 0.999023 0.999023 0.999023 0.999023 0.999023 0.999023 0.999023 0.999023 0.999023 0.999023 0.999023 0.999023 0.999023 0.999023 0.999023 0.999023 0.998047 0.992188 0.994141 0.993164 0.993164 0.993164 0.994141 0.997070 0.999023 0.996094 0.993164 0.987305 0.987305 0.983398 0.978516 0.979492 0.966797 0.960938 0.976562 0.953125 0.954102 0.956055 0.955078 0.952148 0.946289 0.946289 0.946289 0.938477 0.931641 0.930664 0.919922 0.916992 0.922852 0.915039 0.923828 0.930664 0.933594 0.941406 0.945312 0.957031 0.967773 0.959961 0.976562 0.980469 0.979492 0.985352 0.996094 0.999023 0.998047 0.999023 0.998047 0.999023 0.998047 0.998047 0.994141 0.994141 0.994141 0.996094 0.995117 0.987305 0.989258 0.996094 0.996094 0.999023 0.999023 0.999023 0.999023 0.999023 0.999023 0.999023 0.999023 0.999023 0.999023 0.999023 0.999023 0.999023 0.999023 0.998047 0.994141 0.997070 0.997070 0.998047 0.999023 0.998047 0.999023 0.999023 0.999023 0.999023 0.998047 0.999023 0.998047 0.997070 0.999023 0.998047 0.995117 0.996094 0.997070 0.998047 0.999023 0.999023 0.999023 0.999023 0.999023 0.999023 0.999023 0.999023 0.999023 0.999023 0.999023 0.999023 0.999023 0.999023 0.999023 0.999023 0.999023 0.999023 0.999023 0.999023 0.999023 0.998047 0.997070 0.999023 0.999023 0.998047 0.999023 0.998047 0.999023 0.999023 0.999023 0.999023 0.999023 0.999023 0.999023 0.999023 0.998047 0.998047 0.988281 0.990234 0.992188 0.984375 0.988281 0.992188 0.995117 0.999023 0.997070 0.995117 0.992188 0.989258 0.987305 0.995117 0.978516 0.987305 0.985352 0.984375 0.987305 0.986328 0.979492 0.986328 0.971680 0.982422 0.984375 0.988281 0.987305 0.988281 0.985352 0.983398 0.984375 0.981445 0.979492 0.980469 0.977539 0.983398 0.976562 0.964844 0.980469 0.982422 0.977539 0.967773 0.978516 0.967773 0.987305 0.981445 0.980469 0.975586
0.981445 0.982422 0.972656 0.975586 0.974609 0.974609 0.979492 0.973633 0.971680 0.970703 0.977539 0.975586 0.981445 0.986328 0.975586 0.978516 0.971680 0.967773 0.961914 0.959961 0.958984 0.962891 0.951172 0.941406 0.949219 0.956055 0.961914 0.952148 0.971680 0.956055 0.960938 0.978516 0.959961 0.970703 0.972656 0.964844 0.979492 0.973633 0.970703 0.965820 0.975586 0.964844 0.961914 0.955078 0.971680 0.968750 0.964844 0.960938 0.960938 0.953125 0.943359 0.951172 0.956055 0.960938 0.958984 0.955078 0.963867 0.967773 0.963867 0.967773 0.953125 0.962891 0.957031 0.971680 0.962891 0.974609 0.973633 0.972656 0.970703 0.972656 0.973633 0.968750 0.967773 0.970703 0.982422 0.980469 0.988281 0.982422 0.986328 0.997070 0.982422 0.991211 0.996094 0.978516 0.989258 0.990234 0.990234 0.984375 0.986328 0.984375 0.977539 0.978516 0.986328 0.975586 0.978516 0.984375 0.972656 0.973633 0.978516 0.981445 0.988281 0.982422 0.982422 0.978516 0.986328 0.976562 0.985352 0.981445 0.978516 0.977539 0.979492 0.972656 0.977539 0.982422 0.974609 0.971680 0.968750 0.965820 0.971680 0.967773 0.971680 0.980469 0.985352 0.999023 0.999023 0.999023 0.999023 0.998047 0.999023 0.999023 0.999023 0.999023 0.999023 0.999023 0.999023 0.997070 0.996094 0.995117 0.997070 0.998047 0.997070 0.999023 0.999023 0.999023 0.999023 0.999023 0.999023 0.997070 0.999023 0.994141 0.993164 0.992188 0.997070 0.997070 0.999023 0.999023 0.994141 0.990234 0.993164 0.981445 0.979492 0.979492 0.966797 0.976562 0.959961 0.965820 0.958984 0.956055 0.948242 0.946289 0.958008 0.955078 0.943359 0.933594 0.934570 0.927734 0.937500 0.908203 0.920898 0.924805 0.910156 0.933594 0.933594 0.937500 0.940430 0.953125 0.957031 0.962891 0.966797 0.976562 0.987305 0.990234 0.999023 0.999023 0.999023 0.998047 0.999023 0.997070 0.992188 0.997070 0.993164 0.992188 0.993164 0.991211 0.989258 0.994141 0.996094 0.995117 0.998047 0.997070 0.999023 0.999023 0.999023 0.999023 0.999023 0.999023 0.999023 0.998047 0.996094 0.997070 0.998047 0.998047 0.999023 0.999023 0.999023 0.999023 0.998047 0.999023 0.999023 0.999023 0.999023 0.999023 0.999023 0.999023 0.999023 0.999023 0.999023 0.998047 0.999023 0.999023 0.999023 0.999023 0.999023 0.999023 0.999023 0.999023 0.999023 0.999023 0.999023 0.999023 0.999023 0.999023 0.999023 0.999023 0.999023 0.999023 0.999023 0.999023 0.999023 0.999023 0.999023 0.999023 0.999023 0.999023 0.999023 0.999023 0.999023 0.999023 0.999023 0.998047 0.998047 0.998047 0.999023 0.999023 0.999023 0.999023 0.999023 0.999023 0.999023 0.999023 0.999023 0.999023 0.997070 0.996094 0.993164 0.990234 0.994141 0.996094 0.993164 0.997070 0.997070 0.995117 0.997070 0.996094 0.993164 0.995117 0.996094 0.994141 0.992188 0.996094 0.991211 0.990234 0.980469 0.985352 0.981445 0.983398 0.993164 0.978516 0.985352 0.984375 0.982422 0.981445 0.985352 0.984375 0.975586 0.980469 0.984375 0.980469 0.979492 0.976562 0.982422 0.978516 0.980469 0.978516 0.984375 0.975586 0.978516 0.981445 0.981445 0.967773 0.980469
0.985352 0.976562 0.981445 0.978516 0.972656 0.968750 0.965820 0.974609 0.972656 0.977539 0.975586 0.983398 0.972656 0.977539 0.977539 0.973633 0.972656 0.970703 0.958984 0.962891 0.963867 0.958008 0.951172 0.961914 0.951172 0.960938 0.968750 0.967773 0.967773 0.972656 0.976562 0.968750 0.969727 0.967773 0.973633 0.967773 0.958984 0.972656 0.967773 0.959961 0.960938 0.958984 0.966797 0.973633 0.958008 0.961914 0.954102 0.958008 0.955078 0.944336 0.950195 0.954102 0.957031 0.945312 0.956055 0.952148 0.956055 0.970703 0.970703 0.961914 0.954102 0.951172 0.968750 0.955078 0.957031 0.963867 0.963867 0.962891 0.956055 0.962891 0.961914 0.976562 0.986328 0.985352 0.982422 0.971680 0.979492 0.980469 0.980469 0.985352 0.993164 0.988281 0.992188 0.993164 0.993164 0.989258 0.987305 0.988281 0.981445 0.986328 0.982422 0.978516 0.982422 0.971680 0.968750 0.979492 0.977539 0.985352 0.974609 0.964844 0.974609 0.970703 0.986328 0.970703 0.973633 0.979492 0.972656 0.978516 0.963867 0.974609 0.971680 0.973633 0.972656 0.982422 0.958984 0.964844 0.968750 0.975586 0.959961 0.965820 0.976562 0.984375 0.993164 0.999023 0.998047 0.999023 0.999023 0.999023 0.999023 0.999023 0.999023 0.999023 0.999023 0.998047 0.997070 0.997070 0.995117 0.994141 0.995117 0.993164 0.992188 0.996094 0.999023 0.999023 0.999023 0.999023 0.999023 0.999023 0.999023 0.995117 0.998047 0.996094 0.997070 0.999023 0.999023 0.993164 0.992188 0.994141 0.990234 0.983398 0.979492 0.975586 0.971680 0.957031 0.970703 0.958008 0.950195 0.940430 0.951172 0.938477 0.948242 0.952148 0.945312 0.931641 0.925781 0.926758 0.914062 0.921875 0.912109 0.932617 0.921875 0.933594 0.939453 0.933594 0.958008 0.957031 0.955078 0.972656 0.979492 0.978516 0.997070 0.999023 0.998047 0.999023 0.998047 0.996094 0.997070 0.994141 0.993164 0.987305 0.989258 0.992188 0.992188 0.986328 0.991211 0.985352 0.995117 0.993164 0.997070 0.996094 0.999023 0.999023 0.999023 0.999023 0.999023 0.997070 0.997070 0.994141 0.991211 0.994141 0.994141 0.993164 0.998047 0.998047 0.999023 0.999023 0.999023 0.999023 0.999023 0.999023 0.999023 0.999023 0.999023 0.998047 0.993164 0.996094 0.999023 0.999023 0.999023 0.999023 0.996094 0.998047 0.998047 0.999023 0.999023 0.999023 0.999023 0.999023 0.999023 0.999023 0.999023 0.999023 0.999023 0.999023 0.999023 0.999023 0.999023 0.999023 0.999023 0.999023 0.999023 0.999023 0.999023 0.999023 0.997070 0.998047 0.994141 0.995117 0.997070 0.998047 0.998047 0.999023 0.998047 0.998047 0.998047 0.998047 0.999023 0.999023 0.999023 0.999023 0.999023 0.999023 0.999023 0.998047 0.998047 0.993164 0.996094 0.995117 0.996094 0.991211 0.994141 0.998047 0.999023 0.996094 0.996094 0.996094 0.995117 0.996094 0.998047 0.994141 0.990234 0.993164 0.989258 0.992188 0.985352 0.982422 0.986328 0.973633 0.971680 0.975586 0.982422 0.971680 0.970703 0.970703 0.971680 0.981445 0.978516 0.981445 0.982422 0.984375 0.976562 0.983398 0.985352 0.984375 0.981445 0.979492 0.979492 0.974609 0.974609 0.984375 0.990234
0.977539 0.982422 0.982422 0.972656 0.974609 0.961914 0.969727 0.967773 0.972656 0.966797 0.969727 0.970703 0.976562 0.974609 0.977539 0.973633 0.971680 0.964844 0.968750 0.967773 0.962891 0.959961 0.959961 0.963867 0.967773 0.967773 0.963867 0.967773 0.961914 0.962891 0.974609 0.962891 0.965820 0.970703 0.975586 0.965820 0.965820 0.964844 0.971680 0.963867 0.962891 0.958008 0.964844 0.965820 0.958984 0.966797 0.963867 0.968750 0.943359 0.941406 0.939453 0.941406 0.952148 0.943359 0.947266 0.959961 0.955078 0.955078 0.956055 0.952148 0.961914 0.970703 0.951172 0.949219 0.950195 0.961914 0.962891 0.962891 0.959961 0.967773 0.968750 0.970703 0.965820 0.974609 0.979492 0.978516 0.975586 0.984375 0.981445 0.979492 0.988281 0.990234 0.989258 0.993164 0.991211 0.980469 0.983398 0.980469 0.986328 0.979492 0.988281 0.981445 0.979492 0.983398 0.984375 0.983398 0.974609 0.978516 0.963867 0.979492 0.981445 0.975586 0.980469 0.976562 0.977539 0.978516 0.963867 0.975586 0.964844 0.970703 0.979492 0.969727 0.970703 0.971680 0.966797 0.967773 0.964844 0.971680 0.967773 0.970703 0.981445 0.979492 0.997070 0.999023 0.999023 0.996094 0.999023 0.999023 0.998047 0.998047 0.998047 0.999023 0.999023 0.996094 0.996094 0.996094 0.995117 0.995117 0.996094 0.995117 0.992188 0.995117 0.996094 0.998047 0.999023 0.999023 0.999023 0.999023 0.999023 0.999023 0.999023 0.999023 0.999023 0.999023 0.998047 0.993164 0.985352 0.983398 0.988281 0.979492 0.966797 0.976562 0.971680 0.948242 0.946289 0.955078 0.952148 0.938477 0.948242 0.944336 0.943359 0.950195 0.925781 0.932617 0.919922 0.921875 0.916016 0.934570 0.935547 0.931641 0.925781 0.922852 0.936523 0.951172 0.958008 0.950195 0.970703 0.979492 0.992188 0.998047 0.999023 0.999023 0.998047 0.994141 0.996094 0.996094 0.990234 0.991211 0.987305 0.993164 0.997070 0.993164 0.985352 0.989258 0.990234 0.993164 0.988281 0.995117 0.998047 0.999023 0.998047 0.999023 0.999023 0.998047 0.997070 0.993164 0.992188 0.992188 0.988281 0.984375 0.989258 0.991211 0.993164 0.999023 0.999023 0.999023 0.999023 0.999023 0.999023 0.999023 0.999023 0.999023 0.996094 0.996094 0.994141 0.997070 0.993164 0.997070 0.998047 0.999023 0.999023 0.998047 0.999023 0.999023 0.999023 0.999023 0.999023 0.999023 0.999023 0.999023 0.999023 0.999023 0.999023 0.999023 0.999023 0.999023 0.999023 0.999023 0.998047 0.998047 0.999023 0.999023 0.999023 0.998047 0.998047 0.993164 0.994141 0.993164 0.994141 0.994141 0.993164 0.995117 0.995117 0.993164 0.998047 0.999023 0.999023 0.999023 0.999023 0.999023 0.999023 0.999023 0.997070 0.994141 0.993164 0.994141 0.989258 0.993164 0.993164 0.995117 0.998047 0.989258 0.991211 0.998047 0.991211 0.992188 0.995117 0.992188 0.996094 0.993164 0.995117 0.990234 0.992188 0.989258 0.983398 0.973633 0.975586 0.968750 0.957031 0.965820 0.966797 0.973633 0.973633 0.974609 0.966797 0.962891 0.978516 0.971680 0.971680 0.984375 0.979492 0.976562 0.987305 0.976562 0.981445 0.975586 0.974609 0.979492 0.975586 0.977539 0.988281
0.986328 0.982422 0.984375 0.970703 0.968750 0.974609 0.966797 0.971680 0.966797 0.971680 0.967773 0.975586 0.975586 0.979492 0.970703 0.974609 0.968750 0.962891 0.957031 0.974609 0.957031 0.965820 0.961914 0.958984 0.963867 0.965820 0.966797 0.970703 0.962891 0.961914 0.971680 0.967773 0.960938 0.958984 0.971680 0.958984 0.968750 0.955078 0.969727 0.966797 0.956055 0.959961 0.961914 0.952148 0.952148 0.962891 0.949219 0.957031 0.944336 0.949219 0.944336 0.944336 0.936523 0.954102 0.948242 0.958984 0.958984 0.965820 0.957031 0.959961 0.959961 0.955078 0.956055 0.958984 0.951172 0.964844 0.967773 0.965820 0.963867 0.969727 0.957031 0.971680 0.973633 0.969727 0.959961 0.977539 0.977539 0.985352 0.980469 0.985352 0.986328 0.981445 0.993164 0.996094 0.989258 0.987305 0.988281 0.991211 0.991211 0.982422 0.981445 0.990234 0.984375 0.972656 0.981445 0.981445 0.986328 0.979492 0.983398 0.971680 0.985352 0.979492 0.975586 0.983398 0.970703 0.966797 0.976562 0.970703 0.977539 0.984375 0.970703 0.960938 0.966797 0.979492 0.973633 0.965820 0.958008 0.964844 0.958008 0.980469 0.973633 0.981445 0.998047 0.999023 0.999023 0.997070 0.996094 0.997070 0.999023 0.999023 0.998047 0.998047 0.995117 0.995117 0.993164 0.996094 0.989258 0.993164 0.989258 0.992188 0.992188 0.994141 0.994141 0.996094 0.999023 0.999023 0.999023 0.999023 0.999023 0.999023 0.999023 0.999023 0.999023 0.999023 0.993164 0.979492 0.984375 0.976562 0.974609 0.970703 0.981445 0.978516 0.958984 0.952148 0.942383 0.942383 0.943359 0.940430 0.936523 0.950195 0.941406 0.934570 0.922852 0.917969 0.928711 0.930664 0.927734 0.926758 0.944336 0.932617 0.932617 0.941406 0.942383 0.958008 0.955078 0.972656 0.987305 0.991211 0.999023 0.999023 0.998047 0.996094 0.992188 0.990234 0.989258 0.994141 0.996094 0.994141 0.989258 0.992188 0.990234 0.990234 0.982422 0.988281 0.989258 0.987305 0.989258 0.995117 0.998047 0.999023 0.997070 0.998047 0.998047 0.999023 0.997070 0.993164 0.991211 0.988281 0.987305 0.983398 0.986328 0.993164 0.997070 0.990234 0.999023 0.999023 0.999023 0.999023 0.999023 0.999023 0.998047 0.998047 0.995117 0.997070 0.994141 0.994141 0.992188 0.995117 0.998047 0.999023 0.999023 0.999023 0.999023 0.999023 0.999023 0.999023 0.999023 0.999023 0.999023 0.998047 0.999023 0.999023 0.999023 0.999023 0.999023 0.999023 0.997070 0.995117 0.996094 0.999023 0.999023 0.999023 0.998047 0.992188 0.988281 0.995117 0.986328 0.992188 0.993164 0.992188 0.990234 0.995117 0.993164 0.997070 0.998047 0.999023 0.999023 0.999023 0.999023 0.999023 0.999023 0.999023 0.995117 0.996094 0.992188 0.993164 0.996094 0.996094 0.984375 0.995117 0.991211 0.994141 0.991211 0.992188 0.994141 0.988281 0.996094 0.995117 0.991211 0.991211 0.993164 0.995117 0.995117 0.981445 0.982422 0.970703 0.965820 0.962891 0.969727 0.965820 0.963867 0.968750 0.973633 0.958008 0.966797 0.972656 0.965820 0.979492 0.976562 0.981445 0.987305 0.982422 0.984375 0.979492 0.988281 0.972656 0.984375 0.969727 0.969727 0.980469 0.975586
0.977539 0.977539 0.971680 0.964844 0.970703 0.967773 0.957031 0.963867 0.964844 0.972656 0.963867 0.968750 0.968750 0.968750 0.969727 0.975586 0.975586 0.966797 0.965820 0.963867 0.965820 0.963867 0.962891 0.949219 0.955078 0.963867 0.955078 0.972656 0.959961 0.967773 0.962891 0.962891 0.958008 0.964844 0.964844 0.952148 0.958008 0.969727 0.966797 0.966797 0.961914 0.966797 0.957031 0.960938 0.962891 0.952148 0.953125 0.946289 0.944336 0.934570 0.944336 0.949219 0.946289 0.958984 0.969727 0.942383 0.953125 0.950195 0.952148 0.956055 0.957031 0.948242 0.953125 0.946289 0.957031 0.963867 0.959961 0.961914 0.950195 0.963867 0.958984 0.968750 0.963867 0.967773 0.972656 0.967773 0.976562 0.975586 0.991211 0.974609 0.992188 0.987305 0.994141 0.995117 0.997070 0.994141 0.987305 0.987305 0.990234 0.991211 0.985352 0.989258 0.989258 0.976562 0.981445 0.986328 0.984375 0.974609 0.984375 0.983398 0.980469 0.971680 0.979492 0.970703 0.978516 0.972656 0.978516 0.985352 0.970703 0.973633 0.971680 0.966797 0.968750 0.968750 0.977539 0.970703 0.959961 0.978516 0.962891 0.966797 0.981445 0.992188 0.998047 0.999023 0.997070 0.992188 0.996094 0.998047 0.999023 0.999023 0.999023 0.996094 0.996094 0.996094 0.993164 0.990234 0.994141 0.992188 0.989258 0.990234 0.991211 0.992188 0.992188 0.997070 0.999023 0.999023 0.999023 0.999023 0.999023 0.999023 0.999023 0.999023 0.999023 0.993164 0.987305 0.979492 0.975586 0.972656 0.978516 0.968750 0.971680 0.967773 0.955078 0.950195 0.942383 0.947266 0.932617 0.941406 0.933594 0.945312 0.941406 0.923828 0.918945 0.936523 0.937500 0.922852 0.926758 0.924805 0.940430 0.945312 0.942383 0.943359 0.953125 0.975586 0.979492 0.988281 0.997070 0.999023 0.999023 0.994141 0.994141 0.991211 0.991211 0.985352 0.995117 0.991211 0.993164 0.994141 0.993164 0.989258 0.989258 0.989258 0.989258 0.986328 0.989258 0.986328 0.994141 0.993164 0.999023 0.999023 0.999023 0.998047 0.998047 0.999023 0.994141 0.991211 0.989258 0.990234 0.982422 0.985352 0.990234 0.989258 0.989258 0.998047 0.999023 0.999023 0.999023 0.999023 0.999023 0.999023 0.994141 0.994141 0.997070 0.994141 0.995117 0.995117 0.995117 0.997070 0.998047 0.998047 0.999023 0.999023 0.999023 0.999023 0.999023 0.999023 0.999023 0.998047 0.998047 0.994141 0.996094 0.999023 0.999023 0.999023 0.999023 0.998047 0.997070 0.995117 0.997070 0.997070 0.998047 0.999023 0.997070 0.994141 0.992188 0.989258 0.985352 0.993164 0.991211 0.988281 0.991211 0.993164 0.993164 0.996094 0.999023 0.999023 0.999023 0.999023 0.999023 0.998047 0.999023 0.999023 0.992188 0.992188 0.993164 0.994141 0.991211 0.991211 0.995117 0.989258 0.992188 0.993164 0.997070 0.994141 0.990234 0.988281 0.988281 0.991211 0.993164 0.987305 0.991211 0.993164 0.990234 0.982422 0.975586 0.970703 0.958984 0.976562 0.965820 0.965820 0.958008 0.963867 0.969727 0.958008 0.964844 0.966797 0.960938 0.972656 0.973633 0.981445 0.985352 0.989258 0.981445 0.983398 0.979492 0.977539 0.981445 0.983398 0.975586 0.983398 0.985352
0.978516 0.978516 0.969727 0.968750 0.964844 0.966797 0.961914 0.963867 0.961914 0.965820 0.973633 0.967773 0.973633 0.974609 0.964844 0.966797 0.969727 0.971680 0.961914 0.965820 0.963867 0.960938 0.964844 0.959961 0.958984 0.949219 0.962891 0.961914 0.964844 0.969727 0.969727 0.963867 0.967773 0.967773 0.963867 0.958984 0.952148 0.961914 0.971680 0.968750 0.966797 0.962891 0.953125 0.971680 0.948242 0.952148 0.958984 0.961914 0.960938 0.943359 0.955078 0.958984 0.955078 0.963867 0.958008 0.973633 0.959961 0.955078 0.957031 0.959961 0.956055 0.963867 0.940430 0.959961 0.959961 0.958008 0.958008 0.945312 0.952148 0.954102 0.958008 0.969727 0.972656 0.972656 0.967773 0.974609 0.977539 0.978516 0.977539 0.990234 0.978516 0.986328 0.991211 0.997070 0.994141 0.995117 0.991211 0.986328 0.990234 0.984375 0.984375 0.988281 0.983398 0.976562 0.985352 0.988281 0.987305 0.980469 0.981445 0.982422 0.970703 0.984375 0.979492 0.983398 0.978516 0.981445 0.968750 0.975586 0.971680 0.964844 0.959961 0.970703 0.972656 0.971680 0.964844 0.967773 0.966797 0.964844 0.971680 0.979492 0.988281 0.991211 0.998047 0.997070 0.998047 0.996094 0.998047 0.995117 0.997070 0.999023 0.995117 0.994141 0.994141 0.991211 0.988281 0.995117 0.992188 0.985352 0.983398 0.982422 0.988281 0.993164 0.996094 0.998047 0.999023 0.999023 0.999023 0.999023 0.999023 0.999023 0.999023 0.999023 0.995117 0.988281 0.986328 0.976562 0.970703 0.971680 0.972656 0.960938 0.952148 0.953125 0.942383 0.943359 0.934570 0.938477 0.939453 0.958008 0.941406 0.937500 0.930664 0.955078 0.927734 0.916992 0.950195 0.923828 0.925781 0.937500 0.942383 0.941406 0.945312 0.956055 0.961914 0.980469 0.986328 0.999023 0.998047 0.998047 0.988281 0.987305 0.991211 0.993164 0.987305 0.988281 0.990234 0.991211 0.990234 0.988281 0.990234 0.990234 0.988281 0.988281 0.987305 0.985352 0.985352 0.990234 0.993164 0.999023 0.998047 0.999023 0.996094 0.998047 0.995117 0.998047 0.994141 0.990234 0.992188 0.983398 0.989258 0.985352 0.987305 0.988281 0.996094 0.997070 0.999023 0.999023 0.999023 0.999023 0.999023 0.999023 0.998047 0.999023 0.996094 0.994141 0.995117 0.984375 0.994141 0.997070 0.996094 0.999023 0.998047 0.999023 0.999023 0.998047 0.999023 0.999023 0.998047 0.997070 0.997070 0.995117 0.996094 0.999023 0.999023 0.999023 0.999023 0.998047 0.998047 0.993164 0.993164 0.999023 0.998047 0.999023 0.993164 0.997070 0.992188 0.988281 0.989258 0.982422 0.988281 0.989258 0.989258 0.990234 0.996094 0.998047 0.998047 0.999023 0.998047 0.999023 0.999023 0.999023 0.997070 0.992188 0.996094 0.994141 0.994141 0.993164 0.992188 0.994141 0.989258 0.988281 0.993164 0.989258 0.990234 0.987305 0.992188 0.994141 0.987305 0.995117 0.993164 0.995117 0.991211 0.993164 0.984375 0.981445 0.970703 0.962891 0.953125 0.961914 0.950195 0.961914 0.964844 0.966797 0.968750 0.968750 0.964844 0.957031 0.957031 0.966797 0.977539 0.982422 0.987305 0.995117 0.986328 0.983398 0.977539 0.974609 0.982422 0.984375 0.976562 0.984375 0.986328
0.964844 0.974609 0.962891 0.958008 0.961914 0.967773 0.970703 0.956055 0.957031 0.967773 0.963867 0.958008 0.976562 0.977539 0.975586 0.970703 0.978516 0.975586 0.974609 0.967773 0.963867 0.965820 0.968750 0.965820 0.960938 0.960938 0.957031 0.964844 0.962891 0.972656 0.958008 0.977539 0.961914 0.956055 0.957031 0.977539 0.963867 0.964844 0.964844 0.965820 0.961914 0.964844 0.958008 0.964844 0.957031 0.966797 0.959961 0.946289 0.953125 0.965820 0.955078 0.954102 0.960938 0.959961 0.956055 0.949219 0.948242 0.964844 0.965820 0.961914 0.960938 0.962891 0.967773 0.956055 0.948242 0.952148 0.958008 0.954102 0.959961 0.954102 0.952148 0.959961 0.956055 0.973633 0.967773 0.973633 0.976562 0.975586 0.979492 0.981445 0.984375 0.985352 0.991211 0.997070 0.993164 0.998047 0.992188 0.992188 0.990234 0.990234 0.993164 0.989258 0.986328 0.983398 0.990234 0.989258 0.983398 0.985352 0.986328 0.982422 0.985352 0.984375 0.978516 0.973633 0.982422 0.970703 0.964844 0.972656 0.971680 0.962891 0.966797 0.965820 0.958984 0.962891 0.963867 0.956055 0.960938 0.972656 0.970703 0.971680 0.985352 0.996094 0.999023 0.999023 0.993164 0.991211 0.995117 0.998047 0.998047 0.996094 0.995117 0.993164 0.991211 0.988281 0.988281 0.990234 0.987305 0.987305 0.986328 0.989258 0.986328 0.990234 0.999023 0.999023 0.999023 0.999023 0.999023 0.999023 0.999023 0.999023 0.999023 0.995117 0.983398 0.975586 0.976562 0.974609 0.965820 0.961914 0.968750 0.971680 0.951172 0.959961 0.939453 0.936523 0.928711 0.939453 0.943359 0.926758 0.935547 0.920898 0.926758 0.927734 0.935547 0.933594 0.937500 0.941406 0.953125 0.936523 0.947266 0.962891 0.957031 0.972656 0.981445 0.993164 0.998047 0.998047 0.991211 0.981445 0.990234 0.987305 0.981445 0.982422 0.985352 0.989258 0.982422 0.987305 0.988281 0.989258 0.993164 0.988281 0.989258 0.990234 0.986328 0.983398 0.987305 0.987305 0.995117 0.999023 0.998047 0.997070 0.996094 0.995117 0.999023 0.997070 0.989258 0.983398 0.983398 0.979492 0.983398 0.980469 0.981445 0.992188 0.994141 0.998047 0.999023 0.999023 0.999023 0.999023 0.999023 0.999023 0.999023 0.995117 0.997070 0.989258 0.987305 0.988281 0.994141 0.994141 0.996094 0.999023 0.998047 0.998047 0.999023 0.999023 0.999023 0.999023 0.996094 0.996094 0.993164 0.995117 0.997070 0.999023 0.999023 0.998047 0.997070 0.996094 0.997070 0.996094 0.998047 0.997070 0.999023 0.998047 0.995117 0.991211 0.984375 0.986328 0.983398 0.984375 0.988281 0.983398 0.987305 0.996094 0.990234 0.998047 0.997070 0.999023 0.999023 0.999023 0.999023 0.999023 0.995117 0.994141 0.993164 0.990234 0.991211 0.990234 0.991211 0.990234 0.990234 0.990234 0.993164 0.988281 0.995117 0.986328 0.991211 0.984375 0.990234 0.990234 0.996094 0.995117 0.994141 0.987305 0.972656 0.978516 0.961914 0.961914 0.965820 0.963867 0.951172 0.958984 0.959961 0.954102 0.963867 0.958984 0.958008 0.963867 0.964844 0.981445 0.982422 0.987305 0.982422 0.986328 0.989258 0.979492 0.987305 0.980469 0.978516 0.974609 0.974609 0.980469 0.976562
