0.997070 0.994141 0.990234 0.980469 0.964844 0.948242 0.926758 0.917969 0.891602 0.856445 0.844727 0.850586 0.794922 0.800781 0.776367 0.719727 0.709961 0.651367 0.643555 0.634766 0.649414 0.590820 0.611328 0.587891 0.615234 0.560547 0.591797 0.582031 0.571289 0.585938 0.588867 0.590820 0.636719 0.683594 0.733398 0.758789 0.773438 0.774414 0.801758 0.818359 0.833008 0.881836 0.894531 0.906250 0.917969 0.923828 0.959961 0.941406 0.951172 0.965820 0.959961 0.952148 0.946289 0.945312 0.942383 0.951172 0.951172 0.925781 0.914062 0.879883 0.861328 0.866211 0.833008 0.834961 0.816406 0.817383 0.814453 0.852539 0.864258 0.856445 0.862305 0.828125 0.867188 0.856445 0.865234 0.863281 0.853516 0.833984 0.872070 0.862305 0.879883 0.869141 0.905273 0.884766 0.881836 0.901367 0.920898 0.934570 0.942383 0.956055 0.967773 0.964844 0.973633 0.981445 0.992188 0.983398 0.995117 0.996094 0.994141 0.998047 0.998047 0.999023 0.999023 0.999023 0.999023 0.999023 0.999023 0.999023 0.999023 0.999023 0.999023 0.999023 0.999023 0.999023 0.999023 0.999023 0.999023 0.999023 0.999023 0.999023 0.999023 0.999023 0.999023 0.999023 0.999023 0.999023 0.999023 0.999023 0.999023 0.999023 0.999023 0.999023 0.999023 0.999023 0.999023 0.999023 0.999023 0.999023 0.999023 0.999023 0.999023 0.999023 0.999023 0.999023 0.999023 0.999023 0.999023 0.999023 0.999023 0.999023 0.998047 0.993164 0.996094 0.992188 0.993164 0.982422 0.983398 0.975586 0.965820 0.953125 0.957031 0.945312 0.929688 0.932617 0.884766 0.850586 0.804688 0.917969 0.999023 0.999023 0.997070 0.998047 0.990234 0.931641 0.861328 0.882812 0.918945 0.934570 0.928711 0.925781 0.956055 0.977539 0.975586 0.974609 0.968750 0.970703 0.976562 0.990234 0.991211 0.994141 0.994141 0.997070 0.998047 0.998047 0.998047 0.998047 0.998047 0.999023 0.999023 0.999023 0.999023 0.999023 0.999023 0.999023 0.999023 0.999023 0.999023 0.999023 0.999023 0.999023 0.999023 0.999023 0.999023 0.999023 0.999023 0.999023 0.999023 0.999023 0.999023 0.999023 0.999023 0.999023 0.999023 0.999023 0.999023 0.999023 0.999023 0.999023 0.999023 0.999023 0.999023 0.999023 0.999023 0.999023 0.999023 0.999023 0.999023 0.999023 0.999023 0.999023 0.999023 0.999023 0.999023 0.999023 0.999023 0.999023 0.999023 0.999023 0.999023 0.999023 0.999023 0.999023 0.999023 0.999023 0.999023 0.999023 0.999023 0.999023 0.999023 0.999023 0.999023 0.999023 0.999023 0.999023 0.999023 0.999023 0.999023 0.999023 0.999023 0.999023 0.999023 0.999023 0.999023 0.999023 0.999023 0.999023 0.999023 0.999023 0.996094 0.991211 0.977539 0.977539 0.955078 0.938477 0.931641 0.905273 0.898438 0.857422 0.815430 0.791992 0.745117 0.650391 0.756836 0.877930 0.948242 0.958984 0.963867 0.965820 0.962891 0.974609 0.976562 0.958008 0.972656 0.973633 0.959961 0.971680 0.973633 0.964844 0.972656 0.973633 0.942383 0.801758 0.711914 0.683594 0.744141 0.811523 0.851562 0.876953 0.911133 0.906250 0.936523 0.946289 0.971680 0.987305 0.983398 0.991211 0.997070 0.998047 0.999023 0.999023 0.999023
0.999023 0.993164 0.993164 0.983398 0.976562 0.959961 0.940430 0.921875 0.893555 0.895508 0.874023 0.851562 0.832031 0.813477 0.776367 0.778320 0.749023 0.757812 0.699219 0.667969 0.652344 0.659180 0.651367 0.653320 0.629883 0.633789 0.636719 0.615234 0.621094 0.618164 0.598633 0.641602 0.664062 0.742188 0.742188 0.779297 0.766602 0.781250 0.794922 0.800781 0.835938 0.866211 0.885742 0.903320 0.926758 0.931641 0.932617 0.939453 0.946289 0.944336 0.962891 0.938477 0.935547 0.921875 0.937500 0.940430 0.940430 0.942383 0.943359 0.900391 0.884766 0.882812 0.861328 0.854492 0.843750 0.844727 0.848633 0.838867 0.864258 0.852539 0.863281 0.869141 0.854492 0.848633 0.856445 0.845703 0.847656 0.822266 0.820312 0.798828 0.817383 0.828125 0.875977 0.869141 0.891602 0.919922 0.924805 0.941406 0.955078 0.962891 0.969727 0.971680 0.978516 0.976562 0.989258 0.994141 0.988281 0.996094 0.994141 0.997070 0.999023 0.999023 0.999023 0.999023 0.999023 0.999023 0.999023 0.999023 0.999023 0.999023 0.999023 0.999023 0.999023 0.999023 0.999023 0.999023 0.999023 0.999023 0.999023 0.999023 0.999023 0.999023 0.999023 0.999023 0.999023 0.999023 0.999023 0.999023 0.999023 0.999023 0.999023 0.999023 0.999023 0.999023 0.999023 0.999023 0.999023 0.999023 0.999023 0.999023 0.999023 0.999023 0.999023 0.999023 0.999023 0.999023 0.999023 0.999023 0.999023 0.999023 0.999023 0.998047 0.997070 0.992188 0.987305 0.983398 0.985352 0.979492 0.974609 0.962891 0.953125 0.938477 0.934570 0.870117 0.840820 0.841797 0.795898 0.916992 0.991211 0.995117 0.993164 0.993164 0.989258 0.931641 0.877930 0.886719 0.899414 0.900391 0.925781 0.925781 0.961914 0.960938 0.974609 0.971680 0.971680 0.978516 0.978516 0.992188 0.989258 0.993164 0.995117 0.997070 0.998047 0.997070 0.999023 0.997070 0.998047 0.999023 0.999023 0.998047 0.999023 0.999023 0.999023 0.999023 0.999023 0.999023 0.999023 0.999023 0.999023 0.999023 0.999023 0.999023 0.999023 0.999023 0.999023 0.999023 0.999023 0.999023 0.999023 0.999023 0.999023 0.999023 0.999023 0.999023 0.999023 0.999023 0.999023 0.999023 0.999023 0.999023 0.999023 0.999023 0.999023 0.999023 0.999023 0.999023 0.999023 0.999023 0.999023 0.999023 0.999023 0.999023 0.999023 0.999023 0.999023 0.999023 0.999023 0.999023 0.999023 0.999023 0.999023 0.999023 0.999023 0.999023 0.999023 0.999023 0.999023 0.999023 0.999023 0.999023 0.999023 0.999023 0.999023 0.999023 0.999023 0.999023 0.999023 0.999023 0.999023 0.999023 0.999023 0.999023 0.999023 0.999023 0.999023 0.999023 0.999023 0.999023 0.997070 0.992188 0.990234 0.969727 0.966797 0.950195 0.933594 0.925781 0.912109 0.881836 0.842773 0.809570 0.767578 0.704102 0.716797 0.743164 0.733398 0.733398 0.753906 0.777344 0.754883 0.750977 0.761719 0.750000 0.759766 0.762695 0.741211 0.727539 0.745117 0.750000 0.741211 0.743164 0.755859 0.747070 0.711914 0.727539 0.788086 0.830078 0.857422 0.891602 0.907227 0.929688 0.943359 0.965820 0.972656 0.978516 0.988281 0.995117 0.998047 0.999023 0.999023 0.999023 0.999023
0.999023 0.996094 0.996094 0.977539 0.972656 0.975586 0.949219 0.929688 0.920898 0.893555 0.863281 0.898438 0.866211 0.840820 0.810547 0.808594 0.770508 0.770508 0.746094 0.715820 0.718750 0.699219 0.702148 0.699219 0.657227 0.661133 0.647461 0.680664 0.636719 0.653320 0.640625 0.701172 0.713867 0.738281 0.737305 0.777344 0.761719 0.780273 0.793945 0.841797 0.834961 0.879883 0.875000 0.897461 0.906250 0.926758 0.916992 0.929688 0.936523 0.922852 0.923828 0.951172 0.947266 0.926758 0.919922 0.942383 0.947266 0.953125 0.920898 0.940430 0.917969 0.905273 0.883789 0.868164 0.849609 0.847656 0.830078 0.826172 0.814453 0.831055 0.848633 0.862305 0.850586 0.864258 0.848633 0.840820 0.850586 0.857422 0.841797 0.816406 0.823242 0.856445 0.868164 0.883789 0.888672 0.929688 0.937500 0.955078 0.950195 0.964844 0.968750 0.985352 0.977539 0.981445 0.986328 0.994141 0.993164 0.997070 0.999023 0.998047 0.999023 0.999023 0.999023 0.999023 0.999023 0.999023 0.999023 0.999023 0.999023 0.999023 0.999023 0.999023 0.999023 0.999023 0.999023 0.999023 0.999023 0.999023 0.999023 0.999023 0.999023 0.999023 0.999023 0.999023 0.999023 0.999023 0.999023 0.999023 0.999023 0.999023 0.999023 0.999023 0.999023 0.999023 0.999023 0.999023 0.999023 0.999023 0.999023 0.999023 0.999023 0.999023 0.999023 0.999023 0.999023 0.999023 0.999023 0.999023 0.999023 0.998047 0.996094 0.996094 0.996094 0.994141 0.984375 0.986328 0.979492 0.979492 0.974609 0.957031 0.936523 0.932617 0.899414 0.858398 0.814453 0.833984 0.876953 0.903320 0.955078 0.978516 0.979492 0.978516 0.958008 0.920898 0.885742 0.876953 0.899414 0.899414 0.905273 0.920898 0.976562 0.969727 0.971680 0.970703 0.965820 0.974609 0.982422 0.982422 0.983398 0.995117 0.992188 0.995117 0.995117 0.999023 0.997070 0.998047 0.999023 0.999023 0.999023 0.999023 0.999023 0.999023 0.999023 0.999023 0.999023 0.999023 0.999023 0.999023 0.999023 0.999023 0.999023 0.999023 0.999023 0.999023 0.999023 0.999023 0.999023 0.999023 0.999023 0.999023 0.999023 0.999023 0.999023 0.999023 0.999023 0.999023 0.999023 0.999023 0.999023 0.999023 0.999023 0.999023 0.999023 0.999023 0.999023 0.999023 0.999023 0.999023 0.999023 0.999023 0.999023 0.999023 0.999023 0.999023 0.999023 0.999023 0.999023 0.999023 0.999023 0.999023 0.999023 0.999023 0.999023 0.999023 0.999023 0.999023 0.999023 0.999023 0.999023 0.999023 0.999023 0.999023 0.999023 0.999023 0.999023 0.999023 0.999023 0.999023 0.999023 0.999023 0.999023 0.999023 0.999023 0.999023 0.999023 0.999023 0.999023 0.999023 0.998047 0.996094 0.984375 0.978516 0.967773 0.957031 0.936523 0.937500 0.909180 0.892578 0.864258 0.845703 0.812500 0.757812 0.703125 0.666016 0.691406 0.640625 0.650391 0.635742 0.655273 0.618164 0.654297 0.662109 0.662109 0.619141 0.672852 0.643555 0.665039 0.663086 0.644531 0.642578 0.674805 0.672852 0.739258 0.769531 0.828125 0.860352 0.879883 0.901367 0.905273 0.922852 0.948242 0.957031 0.977539 0.982422 0.984375 0.999023 0.998047 0.999023 0.999023 0.999023 0.999023
0.998047 0.998047 0.991211 0.989258 0.980469 0.973633 0.939453 0.926758 0.929688 0.904297 0.902344 0.886719 0.875977 0.836914 0.846680 0.826172 0.807617 0.799805 0.778320 0.777344 0.738281 0.730469 0.716797 0.689453 0.693359 0.685547 0.699219 0.682617 0.685547 0.698242 0.735352 0.749023 0.700195 0.759766 0.759766 0.778320 0.786133 0.794922 0.782227 0.806641 0.829102 0.852539 0.859375 0.870117 0.876953 0.902344 0.913086 0.908203 0.930664 0.907227 0.919922 0.920898 0.904297 0.928711 0.939453 0.926758 0.948242 0.950195 0.936523 0.932617 0.926758 0.909180 0.902344 0.883789 0.856445 0.858398 0.853516 0.850586 0.836914 0.821289 0.833008 0.856445 0.851562 0.855469 0.837891 0.829102 0.891602 0.879883 0.880859 0.888672 0.853516 0.885742 0.847656 0.876953 0.910156 0.931641 0.936523 0.943359 0.956055 0.970703 0.972656 0.984375 0.980469 0.968750 0.987305 0.993164 0.993164 0.996094 0.998047 0.999023 0.999023 0.999023 0.999023 0.999023 0.999023 0.999023 0.999023 0.999023 0.999023 0.999023 0.999023 0.999023 0.999023 0.999023 0.999023 0.999023 0.999023 0.999023 0.999023 0.999023 0.999023 0.999023 0.999023 0.999023 0.999023 0.999023 0.999023 0.999023 0.999023 0.999023 0.999023 0.999023 0.999023 0.999023 0.999023 0.999023 0.999023 0.999023 0.999023 0.999023 0.999023 0.999023 0.999023 0.999023 0.999023 0.999023 0.999023 0.999023 0.999023 0.999023 0.997070 0.996094 0.992188 0.996094 0.988281 0.981445 0.976562 0.978516 0.971680 0.961914 0.944336 0.934570 0.868164 0.850586 0.812500 0.885742 0.915039 0.874023 0.896484 0.923828 0.930664 0.938477 0.890625 0.907227 0.902344 0.895508 0.884766 0.892578 0.912109 0.955078 0.956055 0.975586 0.978516 0.971680 0.976562 0.985352 0.990234 0.988281 0.992188 0.988281 0.997070 0.997070 0.996094 0.994141 0.998047 0.994141 0.999023 0.999023 0.999023 0.999023 0.999023 0.999023 0.999023 0.999023 0.999023 0.999023 0.999023 0.999023 0.999023 0.999023 0.999023 0.999023 0.999023 0.999023 0.999023 0.999023 0.999023 0.999023 0.999023 0.999023 0.999023 0.999023 0.999023 0.999023 0.999023 0.999023 0.999023 0.999023 0.999023 0.999023 0.999023 0.999023 0.999023 0.999023 0.999023 0.999023 0.999023 0.999023 0.999023 0.999023 0.999023 0.999023 0.999023 0.999023 0.999023 0.999023 0.999023 0.999023 0.999023 0.999023 0.999023 0.999023 0.999023 0.999023 0.999023 0.999023 0.999023 0.999023 0.999023 0.999023 0.999023 0.999023 0.999023 0.999023 0.999023 0.999023 0.999023 0.999023 0.999023 0.999023 0.999023 0.999023 0.999023 0.999023 0.999023 0.999023 0.999023 0.999023 0.999023 0.993164 0.992188 0.974609 0.966797 0.954102 0.949219 0.937500 0.916992 0.898438 0.881836 0.850586 0.839844 0.816406 0.731445 0.705078 0.641602 0.642578 0.628906 0.639648 0.630859 0.644531 0.601562 0.625977 0.628906 0.625000 0.655273 0.642578 0.610352 0.677734 0.650391 0.688477 0.703125 0.714844 0.757812 0.851562 0.870117 0.876953 0.882812 0.916992 0.917969 0.931641 0.943359 0.962891 0.975586 0.979492 0.995117 0.997070 0.999023 0.999023 0.999023 0.999023 0.999023
0.999023 0.998047 0.998047 0.993164 0.983398 0.975586 0.970703 0.953125 0.948242 0.931641 0.925781 0.914062 0.904297 0.877930 0.872070 0.862305 0.846680 0.807617 0.818359 0.815430 0.768555 0.772461 0.728516 0.722656 0.709961 0.691406 0.708984 0.722656 0.717773 0.719727 0.758789 0.744141 0.750977 0.750977 0.779297 0.772461 0.769531 0.783203 0.772461 0.795898 0.781250 0.820312 0.813477 0.866211 0.875000 0.867188 0.883789 0.886719 0.905273 0.909180 0.914062 0.917969 0.922852 0.934570 0.927734 0.932617 0.942383 0.951172 0.949219 0.941406 0.924805 0.913086 0.896484 0.873047 0.881836 0.859375 0.843750 0.868164 0.868164 0.861328 0.857422 0.857422 0.850586 0.834961 0.833984 0.828125 0.939453 0.939453 0.950195 0.945312 0.932617 0.953125 0.835938 0.864258 0.888672 0.919922 0.933594 0.945312 0.960938 0.965820 0.979492 0.967773 0.980469 0.982422 0.984375 0.991211 0.993164 0.999023 0.999023 0.999023 0.999023 0.999023 0.999023 0.999023 0.999023 0.999023 0.999023 0.999023 0.999023 0.999023 0.999023 0.999023 0.999023 0.999023 0.999023 0.999023 0.999023 0.999023 0.999023 0.999023 0.999023 0.999023 0.999023 0.999023 0.999023 0.999023 0.999023 0.999023 0.999023 0.999023 0.999023 0.999023 0.999023 0.999023 0.999023 0.999023 0.999023 0.999023 0.999023 0.999023 0.999023 0.999023 0.999023 0.999023 0.999023 0.999023 0.999023 0.999023 0.999023 0.999023 0.994141 0.997070 0.990234 0.990234 0.985352 0.985352 0.983398 0.973633 0.968750 0.964844 0.943359 0.912109 0.874023 0.791992 0.927734 0.918945 0.802734 0.809570 0.841797 0.858398 0.888672 0.904297 0.880859 0.890625 0.884766 0.886719 0.882812 0.971680 0.902344 0.937500 0.958984 0.962891 0.978516 0.973633 0.966797 0.978516 0.988281 0.992188 0.993164 0.988281 0.992188 0.992188 0.995117 0.996094 0.995117 0.998047 0.999023 0.999023 0.999023 0.999023 0.999023 0.999023 0.999023 0.999023 0.999023 0.999023 0.999023 0.999023 0.999023 0.999023 0.999023 0.999023 0.999023 0.999023 0.999023 0.999023 0.999023 0.999023 0.999023 0.999023 0.999023 0.999023 0.999023 0.999023 0.999023 0.999023 0.999023 0.999023 0.999023 0.999023 0.999023 0.999023 0.999023 0.999023 0.999023 0.999023 0.999023 0.999023 0.999023 0.999023 0.999023 0.999023 0.999023 0.999023 0.999023 0.999023 0.999023 0.999023 0.999023 0.999023 0.999023 0.999023 0.999023 0.999023 0.999023 0.999023 0.999023 0.999023 0.999023 0.999023 0.999023 0.999023 0.999023 0.999023 0.999023 0.999023 0.999023 0.999023 0.999023 0.999023 0.999023 0.999023 0.999023 0.999023 0.999023 0.999023 0.999023 0.999023 0.998047 0.998047 0.988281 0.983398 0.975586 0.957031 0.957031 0.937500 0.925781 0.912109 0.893555 0.875977 0.859375 0.833984 0.809570 0.786133 0.753906 0.672852 0.692383 0.672852 0.663086 0.684570 0.670898 0.694336 0.686523 0.686523 0.656250 0.674805 0.687500 0.707031 0.714844 0.718750 0.753906 0.791016 0.821289 0.856445 0.878906 0.872070 0.906250 0.924805 0.940430 0.949219 0.958008 0.964844 0.973633 0.987305 0.995117 0.997070 0.999023 0.999023 0.999023 0.999023 0.999023
0.999023 0.999023 0.997070 0.993164 0.982422 0.988281 0.964844 0.963867 0.948242 0.938477 0.936523 0.922852 0.915039 0.913086 0.900391 0.916016 0.878906 0.865234 0.832031 0.822266 0.819336 0.745117 0.763672 0.750000 0.745117 0.753906 0.730469 0.738281 0.759766 0.776367 0.762695 0.775391 0.780273 0.765625 0.765625 0.750000 0.744141 0.754883 0.756836 0.730469 0.744141 0.751953 0.766602 0.788086 0.830078 0.843750 0.841797 0.870117 0.890625 0.883789 0.909180 0.900391 0.911133 0.916016 0.916016 0.930664 0.931641 0.933594 0.947266 0.947266 0.925781 0.927734 0.896484 0.857422 0.925781 0.953125 0.942383 0.954102 0.940430 0.944336 0.916992 0.818359 0.839844 0.835938 0.863281 0.841797 0.970703 0.968750 0.964844 0.957031 0.940430 0.974609 0.826172 0.884766 0.893555 0.927734 0.936523 0.948242 0.956055 0.964844 0.967773 0.970703 0.987305 0.992188 0.986328 0.991211 0.997070 0.998047 0.999023 0.999023 0.999023 0.999023 0.999023 0.999023 0.999023 0.999023 0.999023 0.999023 0.999023 0.999023 0.999023 0.999023 0.999023 0.999023 0.999023 0.999023 0.999023 0.999023 0.999023 0.999023 0.999023 0.999023 0.999023 0.999023 0.999023 0.999023 0.999023 0.999023 0.999023 0.999023 0.999023 0.999023 0.999023 0.999023 0.999023 0.999023 0.999023 0.999023 0.999023 0.999023 0.999023 0.999023 0.999023 0.999023 0.999023 0.999023 0.999023 0.999023 0.999023 0.999023 0.998047 0.994141 0.993164 0.990234 0.988281 0.983398 0.984375 0.970703 0.971680 0.964844 0.951172 0.927734 0.861328 0.803711 0.885742 0.908203 0.765625 0.800781 0.805664 0.844727 0.856445 0.894531 0.883789 0.903320 0.912109 0.890625 0.902344 0.950195 0.923828 0.950195 0.956055 0.962891 0.980469 0.973633 0.983398 0.989258 0.986328 0.989258 0.991211 0.991211 0.995117 0.993164 0.993164 0.999023 0.998047 0.998047 0.999023 0.999023 0.999023 0.999023 0.999023 0.999023 0.999023 0.999023 0.999023 0.999023 0.999023 0.999023 0.999023 0.999023 0.999023 0.999023 0.999023 0.999023 0.999023 0.999023 0.999023 0.999023 0.999023 0.999023 0.999023 0.999023 0.999023 0.999023 0.999023 0.999023 0.999023 0.999023 0.999023 0.999023 0.999023 0.999023 0.999023 0.999023 0.999023 0.999023 0.999023 0.999023 0.999023 0.999023 0.999023 0.999023 0.999023 0.999023 0.999023 0.999023 0.999023 0.999023 0.999023 0.999023 0.999023 0.999023 0.999023 0.999023 0.999023 0.999023 0.999023 0.999023 0.999023 0.999023 0.999023 0.999023 0.999023 0.999023 0.999023 0.999023 0.999023 0.999023 0.999023 0.999023 0.999023 0.999023 0.999023 0.999023 0.999023 0.999023 0.999023 0.999023 0.999023 0.992188 0.991211 0.987305 0.971680 0.959961 0.958008 0.941406 0.918945 0.915039 0.914062 0.907227 0.876953 0.870117 0.828125 0.822266 0.788086 0.775391 0.722656 0.726562 0.736328 0.715820 0.716797 0.730469 0.725586 0.748047 0.737305 0.742188 0.766602 0.766602 0.790039 0.802734 0.813477 0.831055 0.844727 0.887695 0.908203 0.909180 0.919922 0.930664 0.931641 0.953125 0.952148 0.969727 0.980469 0.980469 0.994141 0.998047 0.999023 0.999023 0.999023 0.999023 0.999023
0.999023 0.999023 0.998047 0.997070 0.995117 0.991211 0.980469 0.978516 0.964844 0.947266 0.955078 0.950195 0.929688 0.922852 0.901367 0.897461 0.899414 0.875977 0.870117 0.832031 0.800781 0.819336 0.803711 0.797852 0.796875 0.798828 0.757812 0.748047 0.790039 0.778320 0.776367 0.786133 0.759766 0.777344 0.746094 0.752930 0.748047 0.711914 0.715820 0.705078 0.645508 0.654297 0.657227 0.711914 0.764648 0.806641 0.822266 0.826172 0.834961 0.867188 0.877930 0.888672 0.900391 0.926758 0.917969 0.924805 0.933594 0.935547 0.947266 0.933594 0.924805 0.901367 0.868164 0.880859 0.927734 0.994141 0.994141 0.995117 0.989258 0.985352 0.898438 0.829102 0.836914 0.825195 0.845703 0.851562 0.975586 0.964844 0.969727 0.949219 0.958984 0.968750 0.830078 0.872070 0.914062 0.926758 0.927734 0.952148 0.960938 0.974609 0.978516 0.979492 0.979492 0.985352 0.988281 0.994141 0.995117 0.998047 0.999023 0.999023 0.999023 0.999023 0.999023 0.999023 0.999023 0.999023 0.999023 0.999023 0.999023 0.999023 0.999023 0.999023 0.999023 0.999023 0.999023 0.999023 0.999023 0.999023 0.999023 0.999023 0.999023 0.999023 0.999023 0.999023 0.999023 0.999023 0.999023 0.999023 0.999023 0.999023 0.999023 0.999023 0.999023 0.999023 0.999023 0.999023 0.999023 0.999023 0.999023 0.999023 0.999023 0.999023 0.999023 0.999023 0.999023 0.999023 0.999023 0.999023 0.999023 0.998047 0.998047 0.996094 0.992188 0.997070 0.989258 0.986328 0.980469 0.978516 0.977539 0.950195 0.947266 0.939453 0.867188 0.845703 0.862305 0.863281 0.803711 0.788086 0.834961 0.826172 0.843750 0.871094 0.910156 0.897461 0.916016 0.906250 0.916016 0.925781 0.927734 0.953125 0.955078 0.980469 0.973633 0.977539 0.980469 0.984375 0.990234 0.993164 0.992188 0.991211 0.995117 0.996094 0.998047 0.997070 0.997070 0.999023 0.998047 0.999023 0.999023 0.999023 0.999023 0.999023 0.999023 0.999023 0.999023 0.999023 0.999023 0.999023 0.999023 0.999023 0.999023 0.999023 0.999023 0.999023 0.999023 0.999023 0.999023 0.999023 0.999023 0.999023 0.999023 0.999023 0.999023 0.999023 0.999023 0.999023 0.999023 0.999023 0.999023 0.999023 0.999023 0.999023 0.999023 0.999023 0.999023 0.999023 0.999023 0.999023 0.999023 0.999023 0.999023 0.999023 0.999023 0.999023 0.999023 0.999023 0.999023 0.999023 0.999023 0.999023 0.999023 0.999023 0.999023 0.999023 0.999023 0.999023 0.999023 0.999023 0.999023 0.999023 0.999023 0.999023 0.999023 0.999023 0.999023 0.999023 0.999023 0.999023 0.999023 0.999023 0.999023 0.999023 0.999023 0.999023 0.999023 0.999023 0.999023 0.999023 0.999023 0.997070 0.995117 0.987305 0.979492 0.977539 0.956055 0.959961 0.938477 0.918945 0.916016 0.915039 0.911133 0.890625 0.861328 0.868164 0.853516 0.830078 0.798828 0.807617 0.779297 0.801758 0.795898 0.789062 0.780273 0.786133 0.781250 0.801758 0.784180 0.813477 0.823242 0.830078 0.880859 0.880859 0.886719 0.925781 0.919922 0.917969 0.926758 0.922852 0.940430 0.959961 0.971680 0.981445 0.982422 0.994141 0.994141 0.998047 0.998047 0.999023 0.999023 0.999023 0.999023
0.999023 0.999023 0.999023 0.999023 0.998047 0.996094 0.992188 0.977539 0.974609 0.976562 0.966797 0.953125 0.941406 0.927734 0.923828 0.904297 0.886719 0.886719 0.860352 0.852539 0.849609 0.829102 0.825195 0.825195 0.807617 0.792969 0.776367 0.791992 0.806641 0.779297 0.768555 0.784180 0.735352 0.751953 0.749023 0.709961 0.701172 0.706055 0.647461 0.605469 0.598633 0.599609 0.614258 0.675781 0.661133 0.722656 0.762695 0.775391 0.823242 0.839844 0.864258 0.891602 0.886719 0.914062 0.905273 0.913086 0.917969 0.920898 0.937500 0.936523 0.929688 0.914062 0.876953 0.846680 0.928711 0.994141 0.997070 0.992188 0.991211 0.990234 0.924805 0.815430 0.811523 0.837891 0.830078 0.844727 0.977539 0.967773 0.969727 0.958984 0.962891 0.969727 0.843750 0.869141 0.880859 0.923828 0.946289 0.956055 0.958984 0.960938 0.976562 0.963867 0.984375 0.985352 0.993164 0.995117 0.998047 0.999023 0.999023 0.999023 0.999023 0.999023 0.999023 0.999023 0.999023 0.999023 0.999023 0.999023 0.999023 0.999023 0.999023 0.999023 0.999023 0.999023 0.999023 0.999023 0.999023 0.999023 0.999023 0.999023 0.999023 0.999023 0.999023 0.999023 0.999023 0.999023 0.999023 0.999023 0.999023 0.999023 0.999023 0.999023 0.999023 0.999023 0.999023 0.999023 0.999023 0.999023 0.999023 0.999023 0.999023 0.999023 0.999023 0.999023 0.999023 0.999023 0.999023 0.999023 0.999023 0.998047 0.996094 0.995117 0.995117 0.994141 0.988281 0.987305 0.979492 0.977539 0.969727 0.967773 0.950195 0.939453 0.895508 0.857422 0.886719 0.873047 0.847656 0.833008 0.870117 0.850586 0.877930 0.905273 0.892578 0.924805 0.940430 0.919922 0.930664 0.953125 0.943359 0.956055 0.964844 0.975586 0.978516 0.975586 0.986328 0.986328 0.988281 0.991211 0.993164 0.997070 0.993164 0.996094 0.997070 0.996094 0.998047 0.997070 0.999023 0.999023 0.999023 0.999023 0.999023 0.999023 0.999023 0.999023 0.999023 0.999023 0.999023 0.999023 0.999023 0.999023 0.999023 0.999023 0.999023 0.999023 0.999023 0.999023 0.999023 0.999023 0.999023 0.999023 0.999023 0.999023 0.999023 0.999023 0.999023 0.999023 0.999023 0.999023 0.999023 0.999023 0.999023 0.999023 0.999023 0.999023 0.999023 0.999023 0.999023 0.999023 0.999023 0.999023 0.999023 0.999023 0.999023 0.999023 0.999023 0.999023 0.999023 0.999023 0.999023 0.999023 0.999023 0.999023 0.999023 0.999023 0.999023 0.999023 0.999023 0.999023 0.999023 0.999023 0.999023 0.999023 0.999023 0.999023 0.999023 0.999023 0.999023 0.999023 0.999023 0.999023 0.999023 0.999023 0.999023 0.999023 0.999023 0.999023 0.999023 0.999023 0.999023 0.998047 0.995117 0.991211 0.982422 0.971680 0.958984 0.953125 0.957031 0.936523 0.928711 0.906250 0.921875 0.887695 0.895508 0.877930 0.890625 0.872070 0.875000 0.849609 0.833008 0.838867 0.835938 0.820312 0.834961 0.841797 0.850586 0.822266 0.831055 0.870117 0.871094 0.887695 0.900391 0.914062 0.896484 0.929688 0.917969 0.946289 0.931641 0.933594 0.945312 0.950195 0.965820 0.977539 0.980469 0.995117 0.998047 0.998047 0.999023 0.999023 0.999023 0.999023 0.999023
0.999023 0.999023 0.999023 0.999023 0.999023 0.997070 0.996094 0.991211 0.986328 0.984375 0.975586 0.956055 0.940430 0.932617 0.923828 0.910156 0.899414 0.896484 0.864258 0.875000 0.864258 0.842773 0.848633 0.823242 0.825195 0.825195 0.812500 0.801758 0.792969 0.776367 0.768555 0.782227 0.730469 0.716797 0.711914 0.704102 0.701172 0.676758 0.631836 0.575195 0.570312 0.605469 0.678711 0.728516 0.724609 0.708984 0.718750 0.733398 0.774414 0.843750 0.857422 0.881836 0.902344 0.899414 0.906250 0.920898 0.902344 0.926758 0.918945 0.943359 0.929688 0.922852 0.890625 0.832031 0.932617 0.968750 0.966797 0.957031 0.958984 0.949219 0.892578 0.825195 0.822266 0.833008 0.852539 0.832031 0.967773 0.963867 0.967773 0.958984 0.964844 0.977539 0.825195 0.881836 0.875000 0.925781 0.938477 0.954102 0.963867 0.961914 0.976562 0.969727 0.984375 0.986328 0.991211 0.994141 0.998047 0.999023 0.999023 0.999023 0.999023 0.999023 0.999023 0.999023 0.999023 0.999023 0.999023 0.999023 0.999023 0.999023 0.999023 0.999023 0.999023 0.999023 0.999023 0.999023 0.999023 0.999023 0.999023 0.999023 0.999023 0.999023 0.999023 0.999023 0.999023 0.999023 0.999023 0.999023 0.999023 0.999023 0.999023 0.999023 0.999023 0.999023 0.999023 0.999023 0.999023 0.999023 0.999023 0.999023 0.999023 0.999023 0.999023 0.999023 0.999023 0.999023 0.999023 0.999023 0.999023 0.999023 0.999023 0.997070 0.995117 0.994141 0.991211 0.982422 0.986328 0.979492 0.974609 0.953125 0.948242 0.930664 0.922852 0.898438 0.895508 0.867188 0.875000 0.871094 0.885742 0.892578 0.919922 0.914062 0.922852 0.926758 0.923828 0.936523 0.929688 0.954102 0.961914 0.962891 0.962891 0.973633 0.974609 0.986328 0.987305 0.990234 0.991211 0.988281 0.991211 0.991211 0.996094 0.996094 0.994141 0.995117 0.999023 0.998047 0.999023 0.999023 0.999023 0.999023 0.999023 0.999023 0.999023 0.999023 0.999023 0.999023 0.999023 0.999023 0.999023 0.999023 0.999023 0.999023 0.999023 0.999023 0.999023 0.999023 0.999023 0.999023 0.999023 0.999023 0.999023 0.999023 0.999023 0.999023 0.999023 0.999023 0.999023 0.999023 0.999023 0.999023 0.999023 0.999023 0.999023 0.999023 0.999023 0.999023 0.999023 0.999023 0.999023 0.999023 0.999023 0.999023 0.999023 0.999023 0.999023 0.999023 0.999023 0.999023 0.999023 0.999023 0.999023 0.999023 0.999023 0.999023 0.999023 0.999023 0.999023 0.999023 0.999023 0.999023 0.999023 0.999023 0.999023 0.999023 0.999023 0.999023 0.999023 0.999023 0.999023 0.999023 0.999023 0.999023 0.999023 0.999023 0.999023 0.999023 0.999023 0.999023 0.999023 0.999023 0.997070 0.994141 0.984375 0.981445 0.972656 0.956055 0.958984 0.941406 0.936523 0.941406 0.929688 0.907227 0.912109 0.914062 0.889648 0.893555 0.909180 0.901367 0.892578 0.884766 0.888672 0.858398 0.862305 0.875977 0.860352 0.863281 0.894531 0.872070 0.890625 0.913086 0.918945 0.913086 0.917969 0.920898 0.929688 0.945312 0.958008 0.956055 0.951172 0.968750 0.970703 0.981445 0.986328 0.991211 0.997070 0.999023 0.999023 0.999023 0.999023 0.999023 0.999023
0.999023 0.999023 0.999023 0.999023 0.999023 0.997070 0.997070 0.993164 0.987305 0.977539 0.953125 0.953125 0.940430 0.936523 0.910156 0.914062 0.912109 0.894531 0.897461 0.871094 0.861328 0.842773 0.844727 0.845703 0.842773 0.833008 0.803711 0.797852 0.797852 0.791016 0.770508 0.739258 0.721680 0.695312 0.656250 0.618164 0.630859 0.628906 0.709961 0.715820 0.702148 0.758789 0.892578 0.903320 0.847656 0.723633 0.703125 0.714844 0.769531 0.782227 0.827148 0.843750 0.883789 0.881836 0.886719 0.907227 0.900391 0.918945 0.924805 0.936523 0.917969 0.915039 0.910156 0.880859 0.870117 0.888672 0.863281 0.880859 0.875977 0.855469 0.856445 0.833008 0.831055 0.839844 0.842773 0.826172 0.943359 0.935547 0.948242 0.949219 0.935547 0.954102 0.814453 0.875977 0.900391 0.923828 0.935547 0.944336 0.955078 0.964844 0.964844 0.972656 0.979492 0.987305 0.988281 0.995117 0.999023 0.998047 0.999023 0.999023 0.999023 0.999023 0.999023 0.999023 0.999023 0.999023 0.999023 0.999023 0.999023 0.999023 0.999023 0.999023 0.999023 0.999023 0.999023 0.999023 0.999023 0.999023 0.999023 0.999023 0.999023 0.999023 0.999023 0.999023 0.999023 0.999023 0.999023 0.999023 0.999023 0.999023 0.999023 0.999023 0.999023 0.999023 0.999023 0.999023 0.999023 0.999023 0.999023 0.999023 0.999023 0.999023 0.999023 0.999023 0.999023 0.999023 0.999023 0.999023 0.999023 0.999023 0.997070 0.999023 0.994141 0.990234 0.985352 0.983398 0.976562 0.983398 0.968750 0.968750 0.951172 0.932617 0.920898 0.924805 0.907227 0.923828 0.909180 0.926758 0.964844 0.974609 0.967773 0.964844 0.971680 0.942383 0.917969 0.939453 0.959961 0.963867 0.968750 0.972656 0.969727 0.970703 0.983398 0.988281 0.991211 0.994141 0.992188 0.992188 0.997070 0.993164 0.998047 0.994141 0.999023 0.998047 0.999023 0.999023 0.999023 0.999023 0.999023 0.999023 0.999023 0.999023 0.999023 0.999023 0.999023 0.999023 0.999023 0.999023 0.999023 0.999023 0.999023 0.999023 0.999023 0.999023 0.999023 0.999023 0.999023 0.999023 0.999023 0.999023 0.999023 0.999023 0.999023 0.999023 0.999023 0.999023 0.999023 0.999023 0.999023 0.999023 0.999023 0.999023 0.999023 0.999023 0.999023 0.999023 0.999023 0.999023 0.999023 0.999023 0.999023 0.999023 0.999023 0.999023 0.999023 0.999023 0.999023 0.999023 0.999023 0.999023 0.999023 0.999023 0.999023 0.999023 0.999023 0.999023 0.999023 0.999023 0.999023 0.999023 0.999023 0.999023 0.999023 0.999023 0.999023 0.999023 0.999023 0.999023 0.999023 0.999023 0.999023 0.999023 0.999023 0.999023 0.999023 0.999023 0.999023 0.999023 0.999023 0.999023 0.999023 0.996094 0.994141 0.983398 0.980469 0.963867 0.966797 0.943359 0.951172 0.951172 0.944336 0.940430 0.924805 0.936523 0.922852 0.926758 0.928711 0.906250 0.896484 0.914062 0.884766 0.881836 0.887695 0.889648 0.899414 0.890625 0.905273 0.918945 0.914062 0.913086 0.920898 0.920898 0.940430 0.939453 0.950195 0.952148 0.958008 0.959961 0.956055 0.970703 0.977539 0.985352 0.991211 0.995117 0.997070 0.998047 0.999023 0.999023 0.999023 0.999023 0.999023
0.999023 0.999023 0.999023 0.999023 0.997070 0.990234 0.989258 0.981445 0.963867 0.962891 0.949219 0.942383 0.942383 0.932617 0.924805 0.915039 0.912109 0.889648 0.892578 0.886719 0.884766 0.867188 0.865234 0.843750 0.820312 0.792969 0.785156 0.802734 0.764648 0.735352 0.742188 0.693359 0.664062 0.623047 0.600586 0.576172 0.586914 0.695312 0.878906 0.910156 0.869141 0.810547 0.703125 0.803711 0.970703 0.835938 0.716797 0.666992 0.762695 0.782227 0.841797 0.847656 0.867188 0.880859 0.886719 0.893555 0.897461 0.907227 0.921875 0.932617 0.933594 0.917969 0.906250 0.890625 0.859375 0.845703 0.851562 0.827148 0.848633 0.835938 0.853516 0.829102 0.837891 0.858398 0.854492 0.825195 0.878906 0.881836 0.886719 0.887695 0.891602 0.880859 0.847656 0.865234 0.900391 0.920898 0.927734 0.960938 0.958008 0.958984 0.969727 0.977539 0.983398 0.985352 0.993164 0.995117 0.997070 0.999023 0.999023 0.999023 0.999023 0.999023 0.999023 0.999023 0.999023 0.999023 0.999023 0.999023 0.999023 0.999023 0.999023 0.999023 0.999023 0.999023 0.999023 0.999023 0.999023 0.999023 0.999023 0.999023 0.999023 0.999023 0.999023 0.999023 0.999023 0.999023 0.999023 0.999023 0.999023 0.999023 0.999023 0.999023 0.999023 0.999023 0.999023 0.999023 0.999023 0.999023 0.999023 0.999023 0.999023 0.999023 0.999023 0.999023 0.999023 0.999023 0.999023 0.999023 0.999023 0.999023 0.998047 0.997070 0.993164 0.991211 0.992188 0.989258 0.978516 0.985352 0.965820 0.963867 0.956055 0.955078 0.938477 0.916992 0.907227 0.949219 0.961914 0.982422 0.997070 0.985352 0.979492 0.981445 0.978516 0.955078 0.941406 0.953125 0.956055 0.961914 0.977539 0.981445 0.972656 0.977539 0.983398 0.987305 0.992188 0.985352 0.996094 0.995117 0.995117 0.996094 0.994141 0.994141 0.997070 0.999023 0.999023 0.999023 0.999023 0.999023 0.999023 0.999023 0.999023 0.999023 0.999023 0.999023 0.999023 0.999023 0.999023 0.999023 0.999023 0.999023 0.999023 0.999023 0.999023 0.999023 0.999023 0.999023 0.999023 0.999023 0.999023 0.999023 0.999023 0.999023 0.999023 0.999023 0.999023 0.999023 0.999023 0.999023 0.999023 0.999023 0.999023 0.999023 0.999023 0.999023 0.999023 0.999023 0.999023 0.999023 0.999023 0.999023 0.999023 0.999023 0.999023 0.999023 0.999023 0.999023 0.999023 0.999023 0.999023 0.999023 0.999023 0.999023 0.999023 0.999023 0.999023 0.999023 0.999023 0.999023 0.999023 0.999023 0.999023 0.999023 0.999023 0.999023 0.999023 0.999023 0.999023 0.999023 0.999023 0.999023 0.999023 0.999023 0.999023 0.999023 0.999023 0.999023 0.999023 0.999023 0.999023 0.998047 0.999023 0.996094 0.995117 0.988281 0.982422 0.977539 0.970703 0.978516 0.957031 0.967773 0.955078 0.951172 0.939453 0.947266 0.948242 0.926758 0.930664 0.943359 0.916016 0.912109 0.912109 0.902344 0.912109 0.911133 0.931641 0.912109 0.917969 0.926758 0.934570 0.944336 0.952148 0.958984 0.945312 0.954102 0.955078 0.957031 0.958008 0.972656 0.969727 0.976562 0.983398 0.984375 0.988281 0.993164 0.993164 0.998047 0.998047 0.999023 0.999023 0.999023 0.999023
0.998047 0.999023 0.999023 0.996094 0.993164 0.980469 0.984375 0.970703 0.944336 0.944336 0.946289 0.934570 0.934570 0.926758 0.919922 0.911133 0.900391 0.875977 0.876953 0.874023 0.870117 0.865234 0.809570 0.814453 0.792969 0.789062 0.782227 0.746094 0.740234 0.688477 0.681641 0.670898 0.624023 0.605469 0.618164 0.627930 0.718750 0.839844 0.870117 0.734375 0.663086 0.561523 0.464844 0.590820 0.753906 0.997070 0.733398 0.623047 0.685547 0.729492 0.815430 0.817383 0.832031 0.885742 0.870117 0.876953 0.896484 0.891602 0.898438 0.900391 0.906250 0.910156 0.911133 0.895508 0.853516 0.858398 0.852539 0.834961 0.836914 0.832031 0.871094 0.854492 0.872070 0.882812 0.836914 0.837891 0.865234 0.849609 0.846680 0.835938 0.861328 0.850586 0.878906 0.892578 0.921875 0.920898 0.930664 0.954102 0.959961 0.976562 0.971680 0.971680 0.984375 0.987305 0.994141 0.998047 0.999023 0.999023 0.999023 0.999023 0.999023 0.999023 0.999023 0.999023 0.999023 0.999023 0.999023 0.999023 0.999023 0.999023 0.999023 0.999023 0.999023 0.999023 0.999023 0.999023 0.999023 0.999023 0.999023 0.999023 0.999023 0.999023 0.999023 0.999023 0.999023 0.999023 0.999023 0.999023 0.999023 0.999023 0.999023 0.999023 0.999023 0.999023 0.999023 0.999023 0.999023 0.999023 0.999023 0.999023 0.999023 0.999023 0.999023 0.999023 0.999023 0.999023 0.999023 0.999023 0.999023 0.999023 0.999023 0.998047 0.993164 0.992188 0.987305 0.988281 0.986328 0.973633 0.976562 0.969727 0.977539 0.951172 0.942383 0.941406 0.913086 0.937500 0.996094 0.996094 0.978516 0.981445 0.977539 0.973633 0.974609 0.967773 0.965820 0.962891 0.963867 0.964844 0.971680 0.971680 0.981445 0.976562 0.986328 0.983398 0.994141 0.993164 0.992188 0.994141 0.995117 0.995117 0.998047 0.997070 0.998047 0.999023 0.999023 0.999023 0.999023 0.999023 0.999023 0.999023 0.999023 0.999023 0.999023 0.999023 0.999023 0.999023 0.999023 0.999023 0.999023 0.999023 0.999023 0.999023 0.999023 0.999023 0.999023 0.999023 0.999023 0.999023 0.999023 0.999023 0.999023 0.999023 0.999023 0.999023 0.999023 0.999023 0.999023 0.999023 0.999023 0.999023 0.999023 0.999023 0.999023 0.999023 0.999023 0.999023 0.999023 0.999023 0.999023 0.999023 0.999023 0.999023 0.999023 0.999023 0.999023 0.999023 0.999023 0.999023 0.999023 0.999023 0.999023 0.999023 0.999023 0.999023 0.999023 0.999023 0.999023 0.999023 0.999023 0.999023 0.999023 0.999023 0.999023 0.999023 0.999023 0.999023 0.999023 0.999023 0.999023 0.999023 0.999023 0.999023 0.999023 0.999023 0.999023 0.999023 0.999023 0.999023 0.999023 0.999023 0.999023 0.998047 0.996094 0.994141 0.992188 0.987305 0.976562 0.973633 0.980469 0.975586 0.974609 0.967773 0.965820 0.952148 0.947266 0.952148 0.941406 0.931641 0.934570 0.936523 0.930664 0.931641 0.939453 0.930664 0.940430 0.941406 0.951172 0.946289 0.958008 0.958984 0.956055 0.958984 0.957031 0.954102 0.960938 0.965820 0.957031 0.959961 0.973633 0.978516 0.976562 0.983398 0.990234 0.985352 0.987305 0.986328 0.990234 0.997070 0.999023 0.999023 0.999023
0.999023 0.998047 0.998047 0.992188 0.983398 0.980469 0.977539 0.943359 0.939453 0.947266 0.940430 0.917969 0.907227 0.911133 0.875977 0.895508 0.879883 0.877930 0.863281 0.856445 0.821289 0.840820 0.792969 0.795898 0.767578 0.743164 0.714844 0.688477 0.657227 0.653320 0.628906 0.660156 0.672852 0.666992 0.720703 0.833008 0.979492 0.764648 0.686523 0.644531 0.545898 0.480469 0.439453 0.531250 0.651367 0.927734 0.729492 0.635742 0.626953 0.706055 0.748047 0.821289 0.845703 0.858398 0.869141 0.881836 0.897461 0.895508 0.903320 0.891602 0.895508 0.909180 0.901367 0.909180 0.892578 0.869141 0.851562 0.868164 0.848633 0.864258 0.870117 0.866211 0.854492 0.863281 0.838867 0.851562 0.837891 0.835938 0.819336 0.837891 0.835938 0.845703 0.874023 0.903320 0.911133 0.929688 0.938477 0.955078 0.949219 0.980469 0.970703 0.983398 0.981445 0.987305 0.990234 0.999023 0.998047 0.999023 0.999023 0.999023 0.999023 0.999023 0.999023 0.999023 0.999023 0.999023 0.999023 0.999023 0.999023 0.999023 0.999023 0.999023 0.999023 0.999023 0.999023 0.999023 0.999023 0.999023 0.999023 0.999023 0.999023 0.999023 0.999023 0.999023 0.999023 0.999023 0.999023 0.999023 0.999023 0.999023 0.999023 0.999023 0.999023 0.999023 0.999023 0.999023 0.999023 0.999023 0.999023 0.999023 0.999023 0.999023 0.999023 0.999023 0.999023 0.999023 0.999023 0.999023 0.999023 0.999023 0.999023 0.997070 0.995117 0.989258 0.985352 0.988281 0.982422 0.996094 0.975586 0.968750 0.973633 0.961914 0.938477 0.923828 0.907227 0.941406 0.991211 0.988281 0.981445 0.965820 0.967773 0.973633 0.962891 0.969727 0.966797 0.974609 0.963867 0.970703 0.981445 0.978516 0.981445 0.988281 0.992188 0.988281 0.993164 0.993164 0.990234 0.987305 0.997070 0.996094 0.996094 0.998047 0.999023 0.999023 0.999023 0.999023 0.999023 0.999023 0.999023 0.999023 0.999023 0.999023 0.999023 0.999023 0.999023 0.999023 0.999023 0.999023 0.999023 0.999023 0.999023 0.999023 0.999023 0.999023 0.999023 0.999023 0.999023 0.999023 0.999023 0.999023 0.999023 0.999023 0.999023 0.999023 0.999023 0.999023 0.999023 0.999023 0.999023 0.999023 0.999023 0.999023 0.999023 0.999023 0.999023 0.999023 0.999023 0.999023 0.999023 0.999023 0.999023 0.999023 0.999023 0.999023 0.999023 0.999023 0.999023 0.999023 0.999023 0.999023 0.999023 0.999023 0.999023 0.999023 0.999023 0.999023 0.999023 0.999023 0.999023 0.999023 0.999023 0.999023 0.999023 0.999023 0.999023 0.999023 0.999023 0.999023 0.999023 0.999023 0.999023 0.999023 0.999023 0.999023 0.999023 0.999023 0.999023 0.999023 0.999023 0.999023 0.999023 0.999023 0.999023 0.996094 0.996094 0.996094 0.993164 0.987305 0.981445 0.983398 0.979492 0.975586 0.968750 0.969727 0.970703 0.958984 0.957031 0.959961 0.958984 0.955078 0.949219 0.950195 0.947266 0.960938 0.949219 0.960938 0.958984 0.937500 0.954102 0.955078 0.961914 0.960938 0.965820 0.963867 0.957031 0.965820 0.969727 0.977539 0.975586 0.973633 0.977539 0.976562 0.976562 0.978516 0.981445 0.985352 0.990234 0.990234 0.990234 0.995117 0.997070
0.999023 0.999023 0.991211 0.994141 0.984375 0.963867 0.937500 0.932617 0.942383 0.931641 0.933594 0.924805 0.889648 0.896484 0.894531 0.886719 0.873047 0.847656 0.833984 0.815430 0.801758 0.774414 0.772461 0.755859 0.723633 0.681641 0.646484 0.632812 0.632812 0.628906 0.663086 0.710938 0.768555 0.973633 0.973633 0.811523 0.699219 0.631836 0.588867 0.557617 0.521484 0.496094 0.467773 0.498047 0.618164 0.812500 0.730469 0.602539 0.594727 0.622070 0.718750 0.788086 0.824219 0.838867 0.871094 0.861328 0.853516 0.869141 0.859375 0.875977 0.910156 0.912109 0.883789 0.862305 0.879883 0.825195 0.861328 0.868164 0.855469 0.883789 0.877930 0.851562 0.885742 0.865234 0.844727 0.837891 0.822266 0.824219 0.808594 0.823242 0.812500 0.864258 0.887695 0.891602 0.921875 0.933594 0.945312 0.950195 0.967773 0.964844 0.978516 0.986328 0.985352 0.982422 0.996094 0.997070 0.998047 0.999023 0.999023 0.999023 0.999023 0.999023 0.999023 0.999023 0.999023 0.999023 0.999023 0.999023 0.999023 0.999023 0.999023 0.999023 0.999023 0.999023 0.999023 0.999023 0.999023 0.999023 0.999023 0.999023 0.999023 0.999023 0.999023 0.999023 0.999023 0.999023 0.999023 0.999023 0.999023 0.999023 0.999023 0.999023 0.999023 0.999023 0.999023 0.999023 0.999023 0.999023 0.999023 0.999023 0.999023 0.999023 0.999023 0.999023 0.999023 0.999023 0.999023 0.999023 0.999023 0.999023 0.999023 0.998047 0.992188 0.993164 0.990234 0.989258 0.984375 0.986328 0.984375 0.975586 0.975586 0.970703 0.956055 0.935547 0.936523 0.954102 0.984375 0.977539 0.980469 0.976562 0.967773 0.967773 0.965820 0.968750 0.959961 0.960938 0.962891 0.975586 0.973633 0.979492 0.989258 0.985352 0.989258 0.991211 0.998047 0.996094 0.990234 0.994141 0.993164 0.997070 0.999023 0.999023 0.999023 0.998047 0.999023 0.999023 0.999023 0.999023 0.999023 0.999023 0.999023 0.999023 0.999023 0.999023 0.999023 0.999023 0.999023 0.999023 0.999023 0.999023 0.999023 0.999023 0.999023 0.999023 0.999023 0.999023 0.999023 0.999023 0.999023 0.999023 0.999023 0.999023 0.999023 0.999023 0.999023 0.999023 0.999023 0.999023 0.999023 0.999023 0.999023 0.999023 0.999023 0.999023 0.999023 0.999023 0.999023 0.999023 0.999023 0.999023 0.999023 0.999023 0.999023 0.999023 0.999023 0.999023 0.999023 0.999023 0.999023 0.999023 0.999023 0.999023 0.999023 0.999023 0.999023 0.999023 0.999023 0.999023 0.999023 0.999023 0.999023 0.999023 0.999023 0.999023 0.999023 0.999023 0.999023 0.999023 0.999023 0.999023 0.999023 0.999023 0.999023 0.999023 0.999023 0.999023 0.999023 0.999023 0.999023 0.999023 0.999023 0.999023 0.999023 0.999023 0.998047 0.995117 0.994141 0.990234 0.992188 0.993164 0.983398 0.977539 0.984375 0.978516 0.984375 0.969727 0.970703 0.974609 0.980469 0.972656 0.974609 0.964844 0.966797 0.970703 0.973633 0.970703 0.975586 0.964844 0.970703 0.968750 0.971680 0.957031 0.958008 0.967773 0.953125 0.954102 0.967773 0.968750 0.973633 0.973633 0.967773 0.963867 0.969727 0.972656 0.971680 0.962891 0.972656 0.981445 0.974609 0.986328 0.987305
0.997070 0.991211 0.989258 0.977539 0.970703 0.950195 0.938477 0.941406 0.940430 0.914062 0.901367 0.889648 0.892578 0.891602 0.865234 0.860352 0.843750 0.791016 0.803711 0.774414 0.755859 0.725586 0.693359 0.648438 0.664062 0.624023 0.630859 0.623047 0.653320 0.717773 0.809570 0.992188 0.866211 0.746094 0.673828 0.657227 0.627930 0.603516 0.598633 0.566406 0.571289 0.553711 0.503906 0.525391 0.547852 0.654297 0.911133 0.677734 0.597656 0.631836 0.700195 0.769531 0.831055 0.822266 0.847656 0.863281 0.874023 0.878906 0.887695 0.867188 0.866211 0.860352 0.843750 0.828125 0.802734 0.833984 0.833984 0.834961 0.840820 0.869141 0.855469 0.880859 0.867188 0.859375 0.842773 0.838867 0.829102 0.801758 0.820312 0.826172 0.825195 0.824219 0.871094 0.899414 0.906250 0.928711 0.938477 0.938477 0.961914 0.970703 0.961914 0.976562 0.981445 0.988281 0.994141 0.998047 0.998047 0.999023 0.999023 0.999023 0.999023 0.999023 0.999023 0.999023 0.999023 0.999023 0.999023 0.999023 0.999023 0.999023 0.999023 0.999023 0.999023 0.999023 0.999023 0.999023 0.999023 0.999023 0.999023 0.999023 0.999023 0.999023 0.999023 0.999023 0.999023 0.999023 0.999023 0.999023 0.999023 0.999023 0.999023 0.999023 0.999023 0.999023 0.999023 0.999023 0.999023 0.999023 0.999023 0.999023 0.999023 0.999023 0.999023 0.999023 0.999023 0.999023 0.999023 0.999023 0.999023 0.999023 0.999023 0.999023 0.997070 0.992188 0.989258 0.987305 0.989258 0.981445 0.980469 0.980469 0.984375 0.972656 0.956055 0.952148 0.948242 0.958008 0.958008 0.978516 0.975586 0.970703 0.965820 0.975586 0.969727 0.964844 0.970703 0.969727 0.972656 0.979492 0.978516 0.983398 0.984375 0.985352 0.994141 0.990234 0.993164 0.997070 0.997070 0.998047 0.999023 0.999023 0.998047 0.999023 0.999023 0.999023 0.999023 0.999023 0.999023 0.999023 0.999023 0.999023 0.999023 0.999023 0.999023 0.999023 0.999023 0.999023 0.999023 0.999023 0.999023 0.999023 0.999023 0.999023 0.999023 0.999023 0.999023 0.999023 0.999023 0.999023 0.999023 0.999023 0.999023 0.999023 0.999023 0.999023 0.999023 0.999023 0.999023 0.999023 0.999023 0.999023 0.999023 0.999023 0.999023 0.999023 0.999023 0.999023 0.999023 0.999023 0.999023 0.999023 0.999023 0.999023 0.999023 0.999023 0.999023 0.999023 0.999023 0.999023 0.999023 0.999023 0.999023 0.999023 0.999023 0.999023 0.999023 0.999023 0.999023 0.999023 0.999023 0.999023 0.999023 0.999023 0.999023 0.999023 0.999023 0.999023 0.999023 0.999023 0.999023 0.999023 0.999023 0.999023 0.999023 0.999023 0.999023 0.999023 0.999023 0.999023 0.999023 0.999023 0.999023 0.999023 0.999023 0.999023 0.999023 0.998047 0.997070 0.999023 0.999023 0.993164 0.992188 0.995117 0.992188 0.990234 0.987305 0.983398 0.989258 0.980469 0.985352 0.983398 0.987305 0.986328 0.984375 0.984375 0.992188 0.979492 0.977539 0.979492 0.974609 0.960938 0.945312 0.948242 0.939453 0.939453 0.954102 0.945312 0.948242 0.952148 0.951172 0.957031 0.956055 0.948242 0.950195 0.948242 0.958984 0.956055 0.959961 0.953125 0.965820 0.979492 0.986328
0.996094 0.993164 0.981445 0.973633 0.957031 0.958008 0.942383 0.936523 0.919922 0.921875 0.891602 0.891602 0.876953 0.851562 0.840820 0.813477 0.815430 0.770508 0.768555 0.735352 0.674805 0.646484 0.652344 0.621094 0.650391 0.634766 0.666016 0.698242 0.798828 0.994141 0.869141 0.740234 0.664062 0.644531 0.621094 0.591797 0.630859 0.634766 0.637695 0.625977 0.631836 0.598633 0.537109 0.530273 0.566406 0.612305 0.932617 0.698242 0.625977 0.629883 0.649414 0.748047 0.783203 0.810547 0.840820 0.862305 0.840820 0.859375 0.881836 0.849609 0.833008 0.818359 0.819336 0.810547 0.784180 0.786133 0.785156 0.801758 0.814453 0.842773 0.872070 0.880859 0.867188 0.857422 0.825195 0.820312 0.849609 0.859375 0.848633 0.868164 0.860352 0.878906 0.852539 0.881836 0.914062 0.921875 0.951172 0.962891 0.953125 0.972656 0.967773 0.986328 0.984375 0.993164 0.993164 0.997070 0.999023 0.999023 0.999023 0.999023 0.999023 0.999023 0.999023 0.999023 0.999023 0.999023 0.999023 0.999023 0.999023 0.999023 0.999023 0.999023 0.999023 0.999023 0.999023 0.999023 0.999023 0.999023 0.999023 0.999023 0.999023 0.999023 0.999023 0.999023 0.999023 0.999023 0.999023 0.999023 0.999023 0.999023 0.999023 0.999023 0.999023 0.999023 0.999023 0.999023 0.999023 0.999023 0.999023 0.999023 0.999023 0.999023 0.999023 0.999023 0.999023 0.999023 0.999023 0.999023 0.999023 0.999023 0.999023 0.999023 0.996094 0.992188 0.993164 0.989258 0.987305 0.984375 0.992188 0.979492 0.980469 0.967773 0.967773 0.963867 0.937500 0.941406 0.955078 0.962891 0.959961 0.963867 0.965820 0.955078 0.967773 0.969727 0.961914 0.973633 0.966797 0.972656 0.971680 0.985352 0.982422 0.990234 0.985352 0.992188 0.995117 0.996094 0.997070 0.999023 0.999023 0.997070 0.998047 0.999023 0.999023 0.999023 0.999023 0.999023 0.999023 0.999023 0.999023 0.999023 0.999023 0.999023 0.999023 0.999023 0.999023 0.999023 0.999023 0.999023 0.999023 0.999023 0.999023 0.999023 0.999023 0.999023 0.999023 0.999023 0.999023 0.999023 0.999023 0.999023 0.999023 0.999023 0.999023 0.999023 0.999023 0.999023 0.999023 0.999023 0.999023 0.999023 0.999023 0.999023 0.999023 0.999023 0.999023 0.999023 0.999023 0.999023 0.999023 0.999023 0.999023 0.999023 0.999023 0.999023 0.999023 0.999023 0.999023 0.999023 0.999023 0.999023 0.999023 0.999023 0.999023 0.999023 0.999023 0.999023 0.999023 0.999023 0.999023 0.999023 0.999023 0.999023 0.999023 0.999023 0.999023 0.999023 0.999023 0.999023 0.999023 0.999023 0.999023 0.999023 0.999023 0.999023 0.999023 0.999023 0.999023 0.999023 0.999023 0.999023 0.999023 0.999023 0.999023 0.999023 0.999023 0.999023 0.999023 0.998047 0.999023 0.998047 0.998047 0.995117 0.999023 0.996094 0.994141 0.995117 0.995117 0.995117 0.995117 0.995117 0.992188 0.990234 0.993164 0.991211 0.990234 0.984375 0.972656 0.965820 0.951172 0.955078 0.942383 0.930664 0.925781 0.928711 0.933594 0.924805 0.948242 0.941406 0.933594 0.941406 0.934570 0.955078 0.929688 0.929688 0.918945 0.924805 0.934570 0.940430 0.958008 0.969727 0.965820
0.996094 0.985352 0.981445 0.967773 0.956055 0.942383 0.937500 0.916016 0.914062 0.907227 0.898438 0.871094 0.844727 0.831055 0.773438 0.782227 0.728516 0.731445 0.691406 0.620117 0.613281 0.619141 0.647461 0.609375 0.649414 0.760742 0.818359 0.997070 0.872070 0.742188 0.700195 0.660156 0.632812 0.638672 0.643555 0.678711 0.646484 0.680664 0.677734 0.700195 0.608398 0.610352 0.588867 0.573242 0.594727 0.582031 0.711914 0.883789 0.669922 0.625977 0.640625 0.689453 0.750977 0.777344 0.837891 0.838867 0.845703 0.864258 0.866211 0.849609 0.838867 0.802734 0.837891 0.822266 0.787109 0.802734 0.808594 0.805664 0.811523 0.852539 0.845703 0.860352 0.857422 0.832031 0.841797 0.793945 0.874023 0.954102 0.943359 0.963867 0.958984 0.923828 0.840820 0.868164 0.894531 0.941406 0.945312 0.951172 0.956055 0.973633 0.984375 0.985352 0.989258 0.988281 0.996094 0.997070 0.999023 0.998047 0.999023 0.999023 0.999023 0.999023 0.999023 0.999023 0.999023 0.999023 0.999023 0.999023 0.999023 0.999023 0.999023 0.999023 0.999023 0.999023 0.999023 0.999023 0.999023 0.999023 0.999023 0.999023 0.999023 0.999023 0.999023 0.999023 0.999023 0.999023 0.999023 0.999023 0.999023 0.999023 0.999023 0.999023 0.999023 0.999023 0.999023 0.999023 0.999023 0.999023 0.999023 0.999023 0.999023 0.999023 0.999023 0.999023 0.999023 0.999023 0.999023 0.999023 0.999023 0.999023 0.999023 0.998047 0.995117 0.998047 0.993164 0.991211 0.988281 0.988281 0.992188 0.979492 0.976562 0.978516 0.978516 0.973633 0.959961 0.946289 0.952148 0.952148 0.967773 0.961914 0.957031 0.959961 0.962891 0.964844 0.968750 0.971680 0.981445 0.973633 0.979492 0.983398 0.986328 0.981445 0.986328 0.991211 0.995117 0.997070 0.996094 0.999023 0.999023 0.998047 0.999023 0.999023 0.999023 0.999023 0.999023 0.999023 0.999023 0.999023 0.999023 0.999023 0.999023 0.999023 0.999023 0.999023 0.999023 0.999023 0.999023 0.999023 0.999023 0.999023 0.999023 0.999023 0.999023 0.999023 0.999023 0.999023 0.999023 0.999023 0.999023 0.999023 0.999023 0.999023 0.999023 0.999023 0.999023 0.999023 0.999023 0.999023 0.999023 0.999023 0.999023 0.999023 0.999023 0.999023 0.999023 0.999023 0.999023 0.999023 0.999023 0.999023 0.999023 0.999023 0.999023 0.999023 0.999023 0.999023 0.999023 0.999023 0.999023 0.999023 0.999023 0.999023 0.999023 0.999023 0.999023 0.999023 0.999023 0.999023 0.999023 0.999023 0.999023 0.999023 0.999023 0.999023 0.999023 0.999023 0.999023 0.999023 0.999023 0.999023 0.999023 0.999023 0.999023 0.999023 0.999023 0.999023 0.999023 0.999023 0.999023 0.999023 0.999023 0.999023 0.999023 0.999023 0.999023 0.999023 0.999023 0.999023 0.999023 0.999023 0.999023 0.999023 0.999023 0.998047 0.998047 0.998047 0.995117 0.998047 0.999023 0.998047 0.998047 0.997070 0.995117 0.990234 0.981445 0.981445 0.960938 0.943359 0.940430 0.933594 0.911133 0.913086 0.895508 0.895508 0.905273 0.905273 0.907227 0.918945 0.913086 0.924805 0.923828 0.921875 0.904297 0.923828 0.900391 0.930664 0.922852 0.927734 0.905273 0.941406 0.959961
0.998047 0.986328 0.971680 0.969727 0.958008 0.944336 0.921875 0.921875 0.882812 0.857422 0.862305 0.833008 0.816406 0.781250 0.766602 0.758789 0.720703 0.628906 0.614258 0.583008 0.577148 0.625977 0.689453 0.714844 0.868164 0.998047 0.855469 0.694336 0.711914 0.661133 0.681641 0.640625 0.680664 0.678711 0.713867 0.718750 0.735352 0.704102 0.745117 0.701172 0.662109 0.684570 0.666992 0.585938 0.553711 0.580078 0.615234 0.965820 0.735352 0.639648 0.663086 0.668945 0.719727 0.764648 0.791992 0.811523 0.859375 0.857422 0.850586 0.828125 0.798828 0.737305 0.849609 0.938477 0.931641 0.920898 0.917969 0.857422 0.782227 0.790039 0.832031 0.852539 0.854492 0.834961 0.820312 0.794922 0.890625 0.991211 0.999023 0.998047 0.999023 0.917969 0.829102 0.859375 0.893555 0.930664 0.953125 0.964844 0.968750 0.972656 0.982422 0.981445 0.986328 0.992188 0.996094 0.995117 0.999023 0.999023 0.999023 0.999023 0.999023 0.999023 0.999023 0.999023 0.999023 0.999023 0.999023 0.999023 0.999023 0.999023 0.999023 0.999023 0.999023 0.999023 0.999023 0.999023 0.999023 0.999023 0.999023 0.999023 0.999023 0.999023 0.999023 0.999023 0.999023 0.999023 0.999023 0.999023 0.999023 0.999023 0.999023 0.999023 0.999023 0.999023 0.999023 0.999023 0.999023 0.999023 0.999023 0.999023 0.999023 0.999023 0.999023 0.999023 0.999023 0.999023 0.999023 0.999023 0.999023 0.999023 0.999023 0.999023 0.996094 0.996094 0.997070 0.997070 0.989258 0.983398 0.986328 0.988281 0.983398 0.986328 0.978516 0.966797 0.959961 0.948242 0.963867 0.950195 0.961914 0.961914 0.959961 0.952148 0.955078 0.956055 0.963867 0.969727 0.980469 0.980469 0.978516 0.981445 0.986328 0.984375 0.984375 0.992188 0.994141 0.995117 0.998047 0.999023 0.999023 0.999023 0.999023 0.999023 0.999023 0.999023 0.999023 0.999023 0.999023 0.999023 0.999023 0.999023 0.999023 0.999023 0.999023 0.999023 0.999023 0.999023 0.999023 0.999023 0.999023 0.999023 0.999023 0.999023 0.999023 0.999023 0.999023 0.999023 0.999023 0.999023 0.999023 0.999023 0.999023 0.999023 0.999023 0.999023 0.999023 0.999023 0.999023 0.999023 0.999023 0.999023 0.999023 0.999023 0.999023 0.999023 0.999023 0.999023 0.999023 0.999023 0.999023 0.999023 0.999023 0.999023 0.999023 0.999023 0.999023 0.999023 0.999023 0.999023 0.999023 0.999023 0.999023 0.999023 0.999023 0.999023 0.999023 0.999023 0.999023 0.999023 0.999023 0.999023 0.999023 0.999023 0.999023 0.999023 0.999023 0.999023 0.999023 0.999023 0.999023 0.999023 0.999023 0.999023 0.999023 0.999023 0.999023 0.999023 0.999023 0.999023 0.999023 0.999023 0.999023 0.999023 0.999023 0.999023 0.999023 0.999023 0.999023 0.999023 0.999023 0.999023 0.999023 0.999023 0.999023 0.999023 0.998047 0.999023 0.999023 0.997070 0.998047 0.996094 0.991211 0.989258 0.983398 0.985352 0.959961 0.946289 0.946289 0.920898 0.914062 0.889648 0.913086 0.878906 0.871094 0.871094 0.878906 0.865234 0.888672 0.895508 0.898438 0.912109 0.897461 0.894531 0.900391 0.908203 0.902344 0.903320 0.891602 0.893555 0.907227 0.927734 0.952148
0.988281 0.990234 0.966797 0.966797 0.943359 0.942383 0.916016 0.897461 0.876953 0.864258 0.843750 0.823242 0.768555 0.737305 0.700195 0.666992 0.680664 0.639648 0.630859 0.626953 0.660156 0.755859 0.892578 0.994141 0.793945 0.699219 0.698242 0.645508 0.651367 0.650391 0.658203 0.672852 0.736328 0.746094 0.746094 0.767578 0.750977 0.763672 0.732422 0.726562 0.715820 0.714844 0.666992 0.620117 0.584961 0.560547 0.608398 0.702148 0.875977 0.663086 0.651367 0.649414 0.694336 0.736328 0.790039 0.813477 0.831055 0.830078 0.837891 0.822266 0.778320 0.751953 0.851562 0.992188 0.997070 0.995117 0.996094 0.888672 0.742188 0.821289 0.835938 0.845703 0.878906 0.842773 0.820312 0.785156 0.896484 0.988281 0.999023 0.999023 0.999023 0.929688 0.814453 0.831055 0.890625 0.921875 0.957031 0.960938 0.969727 0.967773 0.983398 0.985352 0.990234 0.989258 0.996094 0.997070 0.997070 0.999023 0.999023 0.999023 0.999023 0.999023 0.999023 0.999023 0.999023 0.999023 0.999023 0.999023 0.999023 0.999023 0.999023 0.999023 0.999023 0.999023 0.999023 0.999023 0.999023 0.999023 0.999023 0.999023 0.999023 0.999023 0.999023 0.999023 0.999023 0.999023 0.999023 0.999023 0.999023 0.999023 0.999023 0.999023 0.999023 0.999023 0.999023 0.999023 0.999023 0.999023 0.999023 0.999023 0.999023 0.999023 0.999023 0.999023 0.999023 0.999023 0.999023 0.999023 0.999023 0.999023 0.999023 0.999023 0.998047 0.998047 0.996094 0.991211 0.994141 0.990234 0.980469 0.981445 0.984375 0.980469 0.972656 0.977539 0.979492 0.970703 0.952148 0.960938 0.960938 0.958008 0.953125 0.952148 0.954102 0.949219 0.964844 0.970703 0.971680 0.977539 0.981445 0.973633 0.984375 0.982422 0.974609 0.987305 0.986328 0.989258 0.992188 0.997070 0.999023 0.999023 0.999023 0.999023 0.999023 0.999023 0.999023 0.999023 0.999023 0.999023 0.999023 0.999023 0.999023 0.999023 0.999023 0.999023 0.999023 0.999023 0.999023 0.999023 0.999023 0.999023 0.999023 0.999023 0.999023 0.999023 0.999023 0.999023 0.999023 0.999023 0.999023 0.999023 0.999023 0.999023 0.999023 0.999023 0.999023 0.999023 0.999023 0.999023 0.999023 0.999023 0.999023 0.999023 0.999023 0.999023 0.999023 0.999023 0.999023 0.999023 0.999023 0.999023 0.999023 0.999023 0.999023 0.999023 0.999023 0.999023 0.999023 0.999023 0.999023 0.999023 0.999023 0.999023 0.999023 0.999023 0.999023 0.999023 0.999023 0.999023 0.999023 0.999023 0.999023 0.999023 0.999023 0.999023 0.999023 0.999023 0.999023 0.999023 0.999023 0.999023 0.999023 0.999023 0.999023 0.999023 0.999023 0.999023 0.999023 0.999023 0.999023 0.999023 0.999023 0.999023 0.999023 0.999023 0.999023 0.999023 0.999023 0.999023 0.999023 0.999023 0.999023 0.999023 0.999023 0.999023 0.999023 0.999023 0.999023 0.997070 0.995117 0.994141 0.989258 0.982422 0.967773 0.966797 0.958008 0.934570 0.931641 0.905273 0.898438 0.895508 0.865234 0.854492 0.821289 0.852539 0.848633 0.827148 0.864258 0.844727 0.853516 0.880859 0.874023 0.880859 0.866211 0.855469 0.848633 0.848633 0.875977 0.899414 0.892578 0.901367 0.927734
0.986328 0.979492 0.973633 0.965820 0.943359 0.928711 0.917969 0.892578 0.857422 0.828125 0.816406 0.782227 0.734375 0.674805 0.639648 0.637695 0.656250 0.767578 0.762695 0.828125 0.969727 0.875000 0.726562 0.690430 0.658203 0.615234 0.601562 0.676758 0.677734 0.703125 0.700195 0.750000 0.766602 0.774414 0.777344 0.762695 0.753906 0.755859 0.741211 0.784180 0.768555 0.716797 0.706055 0.660156 0.601562 0.579102 0.535156 0.616211 0.972656 0.731445 0.616211 0.615234 0.669922 0.712891 0.766602 0.795898 0.827148 0.837891 0.824219 0.803711 0.775391 0.736328 0.874023 0.985352 0.993164 0.995117 0.991211 0.898438 0.763672 0.762695 0.818359 0.856445 0.881836 0.857422 0.811523 0.761719 0.906250 0.988281 0.997070 0.998047 0.999023 0.939453 0.838867 0.854492 0.887695 0.926758 0.955078 0.965820 0.969727 0.980469 0.984375 0.987305 0.991211 0.991211 0.996094 0.998047 0.999023 0.998047 0.999023 0.999023 0.999023 0.999023 0.999023 0.999023 0.999023 0.999023 0.999023 0.999023 0.999023 0.999023 0.999023 0.999023 0.999023 0.999023 0.999023 0.999023 0.999023 0.999023 0.999023 0.999023 0.999023 0.999023 0.999023 0.999023 0.999023 0.999023 0.999023 0.999023 0.999023 0.999023 0.999023 0.999023 0.999023 0.999023 0.999023 0.999023 0.999023 0.999023 0.999023 0.999023 0.999023 0.999023 0.999023 0.999023 0.999023 0.999023 0.999023 0.999023 0.999023 0.999023 0.999023 0.999023 0.999023 0.998047 0.995117 0.994141 0.996094 0.988281 0.994141 0.987305 0.987305 0.985352 0.982422 0.984375 0.979492 0.978516 0.962891 0.964844 0.965820 0.959961 0.946289 0.952148 0.955078 0.958008 0.968750 0.971680 0.977539 0.982422 0.970703 0.979492 0.983398 0.982422 0.979492 0.979492 0.984375 0.991211 0.986328 0.996094 0.999023 0.999023 0.999023 0.999023 0.999023 0.999023 0.999023 0.999023 0.999023 0.999023 0.999023 0.999023 0.999023 0.999023 0.999023 0.999023 0.999023 0.999023 0.999023 0.999023 0.999023 0.999023 0.999023 0.999023 0.999023 0.999023 0.999023 0.999023 0.999023 0.999023 0.999023 0.999023 0.999023 0.999023 0.999023 0.999023 0.999023 0.999023 0.999023 0.999023 0.999023 0.999023 0.999023 0.999023 0.999023 0.999023 0.999023 0.999023 0.999023 0.999023 0.999023 0.999023 0.999023 0.999023 0.999023 0.999023 0.999023 0.999023 0.999023 0.999023 0.999023 0.999023 0.999023 0.999023 0.999023 0.999023 0.999023 0.999023 0.999023 0.999023 0.999023 0.999023 0.999023 0.999023 0.999023 0.999023 0.999023 0.999023 0.999023 0.999023 0.999023 0.999023 0.999023 0.999023 0.999023 0.999023 0.999023 0.999023 0.999023 0.999023 0.999023 0.999023 0.999023 0.999023 0.999023 0.999023 0.999023 0.999023 0.999023 0.999023 0.999023 0.999023 0.999023 0.999023 0.999023 0.999023 0.998047 0.999023 0.995117 0.991211 0.986328 0.988281 0.976562 0.966797 0.948242 0.947266 0.936523 0.921875 0.891602 0.884766 0.880859 0.840820 0.841797 0.819336 0.811523 0.824219 0.798828 0.791992 0.800781 0.802734 0.818359 0.854492 0.838867 0.830078 0.831055 0.825195 0.848633 0.844727 0.855469 0.851562 0.864258 0.892578 0.914062
0.989258 0.977539 0.981445 0.959961 0.959961 0.942383 0.918945 0.904297 0.878906 0.837891 0.801758 0.756836 0.696289 0.646484 0.602539 0.636719 0.703125 0.908203 0.892578 0.791992 0.665039 0.619141 0.575195 0.606445 0.592773 0.629883 0.627930 0.683594 0.715820 0.720703 0.784180 0.786133 0.759766 0.768555 0.777344 0.783203 0.823242 0.756836 0.753906 0.770508 0.761719 0.707031 0.695312 0.706055 0.621094 0.553711 0.562500 0.583008 0.736328 0.844727 0.666016 0.641602 0.609375 0.658203 0.753906 0.792969 0.812500 0.830078 0.819336 0.817383 0.773438 0.737305 0.895508 0.979492 0.975586 0.976562 0.988281 0.894531 0.756836 0.747070 0.835938 0.828125 0.849609 0.851562 0.844727 0.825195 0.900391 0.962891 0.964844 0.974609 0.974609 0.939453 0.848633 0.868164 0.905273 0.937500 0.972656 0.972656 0.979492 0.984375 0.983398 0.988281 0.989258 0.992188 0.993164 0.998047 0.998047 0.999023 0.998047 0.999023 0.999023 0.999023 0.999023 0.999023 0.999023 0.999023 0.999023 0.999023 0.999023 0.999023 0.999023 0.999023 0.999023 0.999023 0.999023 0.999023 0.999023 0.999023 0.999023 0.999023 0.999023 0.999023 0.999023 0.999023 0.999023 0.999023 0.999023 0.999023 0.999023 0.999023 0.999023 0.999023 0.999023 0.999023 0.999023 0.999023 0.999023 0.999023 0.999023 0.999023 0.999023 0.999023 0.999023 0.999023 0.999023 0.999023 0.999023 0.999023 0.999023 0.999023 0.999023 0.999023 0.998047 0.999023 0.994141 0.994141 0.993164 0.991211 0.986328 0.986328 0.986328 0.986328 0.987305 0.987305 0.975586 0.978516 0.966797 0.970703 0.961914 0.962891 0.975586 0.972656 0.969727 0.948242 0.966797 0.978516 0.983398 0.972656 0.976562 0.970703 0.979492 0.986328 0.981445 0.986328 0.986328 0.979492 0.987305 0.991211 0.998047 0.997070 0.999023 0.999023 0.999023 0.999023 0.999023 0.999023 0.999023 0.999023 0.999023 0.999023 0.999023 0.999023 0.999023 0.999023 0.999023 0.999023 0.999023 0.999023 0.999023 0.999023 0.999023 0.999023 0.999023 0.999023 0.999023 0.999023 0.999023 0.999023 0.999023 0.999023 0.999023 0.999023 0.999023 0.999023 0.999023 0.999023 0.999023 0.999023 0.999023 0.999023 0.999023 0.999023 0.999023 0.999023 0.999023 0.999023 0.999023 0.999023 0.999023 0.999023 0.999023 0.999023 0.999023 0.999023 0.999023 0.999023 0.999023 0.999023 0.999023 0.999023 0.999023 0.999023 0.999023 0.999023 0.999023 0.999023 0.999023 0.999023 0.999023 0.999023 0.999023 0.999023 0.999023 0.999023 0.999023 0.999023 0.999023 0.999023 0.999023 0.999023 0.999023 0.999023 0.999023 0.999023 0.999023 0.999023 0.999023 0.999023 0.999023 0.999023 0.999023 0.999023 0.999023 0.999023 0.999023 0.999023 0.999023 0.999023 0.999023 0.999023 0.999023 0.999023 0.999023 0.999023 0.998047 0.998047 0.995117 0.986328 0.977539 0.975586 0.971680 0.953125 0.950195 0.930664 0.900391 0.876953 0.887695 0.845703 0.822266 0.805664 0.797852 0.800781 0.786133 0.749023 0.744141 0.760742 0.732422 0.764648 0.778320 0.750977 0.760742 0.759766 0.803711 0.828125 0.806641 0.825195 0.834961 0.852539 0.846680 0.872070 0.875977
0.987305 0.980469 0.975586 0.970703 0.957031 0.948242 0.928711 0.894531 0.874023 0.819336 0.776367 0.745117 0.691406 0.676758 0.745117 0.805664 0.936523 0.667969 0.663086 0.592773 0.519531 0.529297 0.520508 0.594727 0.595703 0.655273 0.689453 0.677734 0.725586 0.772461 0.783203 0.786133 0.780273 0.795898 0.819336 0.817383 0.796875 0.773438 0.777344 0.742188 0.739258 0.752930 0.710938 0.682617 0.627930 0.582031 0.554688 0.576172 0.642578 0.959961 0.758789 0.645508 0.638672 0.710938 0.752930 0.792969 0.839844 0.857422 0.815430 0.801758 0.760742 0.764648 0.886719 0.973633 0.957031 0.970703 0.975586 0.883789 0.781250 0.789062 0.823242 0.849609 0.884766 0.862305 0.858398 0.869141 0.875977 0.872070 0.873047 0.859375 0.858398 0.876953 0.850586 0.889648 0.933594 0.941406 0.966797 0.972656 0.973633 0.984375 0.988281 0.990234 0.995117 0.996094 0.992188 0.998047 0.999023 0.999023 0.998047 0.999023 0.999023 0.999023 0.999023 0.999023 0.999023 0.999023 0.999023 0.999023 0.999023 0.999023 0.999023 0.999023 0.999023 0.999023 0.999023 0.999023 0.999023 0.999023 0.999023 0.999023 0.999023 0.999023 0.999023 0.999023 0.999023 0.999023 0.999023 0.999023 0.999023 0.999023 0.999023 0.999023 0.999023 0.999023 0.999023 0.999023 0.999023 0.999023 0.999023 0.999023 0.999023 0.999023 0.999023 0.999023 0.999023 0.999023 0.999023 0.999023 0.999023 0.999023 0.999023 0.999023 0.999023 0.998047 0.996094 0.996094 0.998047 0.983398 0.990234 0.989258 0.993164 0.993164 0.989258 0.980469 0.973633 0.965820 0.957031 0.973633 0.960938 0.962891 0.963867 0.948242 0.960938 0.959961 0.963867 0.958008 0.963867 0.974609 0.967773 0.980469 0.977539 0.973633 0.980469 0.974609 0.973633 0.981445 0.980469 0.992188 0.994141 0.999023 0.999023 0.999023 0.999023 0.999023 0.999023 0.999023 0.999023 0.999023 0.999023 0.999023 0.999023 0.999023 0.999023 0.999023 0.999023 0.999023 0.999023 0.999023 0.999023 0.998047 0.999023 0.999023 0.999023 0.999023 0.999023 0.999023 0.999023 0.999023 0.999023 0.998047 0.999023 0.998047 0.998047 0.998047 0.999023 0.998047 0.999023 0.999023 0.999023 0.999023 0.999023 0.999023 0.999023 0.999023 0.999023 0.999023 0.999023 0.999023 0.999023 0.999023 0.999023 0.999023 0.999023 0.999023 0.999023 0.999023 0.999023 0.999023 0.999023 0.999023 0.999023 0.999023 0.999023 0.999023 0.999023 0.999023 0.999023 0.999023 0.999023 0.999023 0.999023 0.999023 0.999023 0.999023 0.999023 0.999023 0.999023 0.999023 0.999023 0.999023 0.999023 0.999023 0.999023 0.999023 0.999023 0.999023 0.999023 0.999023 0.999023 0.999023 0.999023 0.999023 0.999023 0.999023 0.999023 0.999023 0.999023 0.999023 0.999023 0.999023 0.999023 0.999023 0.999023 0.999023 0.996094 0.996094 0.982422 0.972656 0.972656 0.960938 0.955078 0.939453 0.926758 0.917969 0.892578 0.867188 0.851562 0.827148 0.782227 0.796875 0.769531 0.767578 0.722656 0.721680 0.737305 0.708008 0.689453 0.682617 0.660156 0.681641 0.687500 0.736328 0.775391 0.770508 0.783203 0.801758 0.805664 0.828125 0.840820 0.863281 0.867188
0.985352 0.979492 0.975586 0.968750 0.950195 0.944336 0.916016 0.897461 0.867188 0.793945 0.754883 0.686523 0.687500 0.780273 0.902344 0.790039 0.583984 0.493164 0.495117 0.487305 0.517578 0.543945 0.591797 0.626953 0.653320 0.687500 0.712891 0.730469 0.731445 0.770508 0.797852 0.836914 0.826172 0.839844 0.814453 0.784180 0.793945 0.778320 0.780273 0.745117 0.733398 0.738281 0.692383 0.668945 0.624023 0.579102 0.503906 0.514648 0.582031 0.716797 0.963867 0.764648 0.710938 0.678711 0.750977 0.819336 0.833008 0.845703 0.842773 0.818359 0.749023 0.759766 0.860352 0.978516 0.984375 0.992188 0.987305 0.893555 0.777344 0.776367 0.825195 0.856445 0.894531 0.857422 0.886719 0.891602 0.827148 0.854492 0.841797 0.844727 0.836914 0.858398 0.907227 0.900391 0.939453 0.945312 0.982422 0.973633 0.985352 0.981445 0.984375 0.990234 0.990234 0.994141 0.991211 0.999023 0.999023 0.999023 0.999023 0.999023 0.999023 0.999023 0.999023 0.999023 0.999023 0.999023 0.999023 0.999023 0.999023 0.999023 0.999023 0.999023 0.999023 0.999023 0.999023 0.999023 0.999023 0.999023 0.999023 0.999023 0.999023 0.999023 0.999023 0.999023 0.999023 0.999023 0.999023 0.999023 0.999023 0.999023 0.999023 0.999023 0.999023 0.999023 0.999023 0.999023 0.999023 0.999023 0.999023 0.999023 0.999023 0.999023 0.999023 0.999023 0.999023 0.999023 0.999023 0.999023 0.999023 0.999023 0.999023 0.999023 0.999023 0.999023 0.997070 0.998047 0.995117 0.996094 0.990234 0.991211 0.987305 0.985352 0.987305 0.981445 0.978516 0.972656 0.967773 0.976562 0.977539 0.949219 0.955078 0.944336 0.956055 0.960938 0.964844 0.968750 0.965820 0.958008 0.976562 0.960938 0.966797 0.968750 0.978516 0.985352 0.989258 0.989258 0.985352 0.983398 0.996094 0.997070 0.998047 0.999023 0.999023 0.999023 0.999023 0.999023 0.999023 0.999023 0.999023 0.999023 0.999023 0.999023 0.999023 0.999023 0.999023 0.999023 0.999023 0.999023 0.999023 0.999023 0.999023 0.999023 0.999023 0.997070 0.999023 0.999023 0.999023 0.996094 0.999023 0.999023 0.999023 0.998047 0.998047 0.999023 0.997070 0.998047 0.999023 0.999023 0.999023 0.999023 0.999023 0.999023 0.999023 0.999023 0.999023 0.999023 0.999023 0.999023 0.999023 0.999023 0.999023 0.999023 0.999023 0.999023 0.999023 0.999023 0.999023 0.999023 0.999023 0.999023 0.999023 0.999023 0.999023 0.999023 0.999023 0.999023 0.999023 0.999023 0.999023 0.999023 0.999023 0.999023 0.999023 0.999023 0.999023 0.999023 0.999023 0.999023 0.999023 0.999023 0.999023 0.999023 0.999023 0.999023 0.999023 0.999023 0.999023 0.999023 0.999023 0.999023 0.999023 0.999023 0.999023 0.999023 0.999023 0.999023 0.999023 0.999023 0.999023 0.999023 0.999023 0.999023 0.999023 0.995117 0.996094 0.982422 0.980469 0.966797 0.964844 0.942383 0.923828 0.894531 0.901367 0.885742 0.856445 0.838867 0.815430 0.812500 0.797852 0.768555 0.724609 0.713867 0.698242 0.701172 0.651367 0.689453 0.644531 0.671875 0.649414 0.609375 0.673828 0.688477 0.697266 0.720703 0.744141 0.784180 0.779297 0.816406 0.834961 0.832031 0.850586
0.988281 0.980469 0.972656 0.958008 0.960938 0.932617 0.920898 0.903320 0.860352 0.789062 0.712891 0.635742 0.674805 0.870117 0.782227 0.583984 0.440430 0.422852 0.438477 0.527344 0.565430 0.572266 0.617188 0.645508 0.709961 0.690430 0.701172 0.732422 0.791016 0.809570 0.846680 0.840820 0.814453 0.820312 0.822266 0.830078 0.792969 0.758789 0.761719 0.736328 0.740234 0.719727 0.707031 0.667969 0.642578 0.578125 0.507812 0.488281 0.507812 0.627930 0.934570 0.780273 0.657227 0.662109 0.740234 0.807617 0.851562 0.861328 0.867188 0.794922 0.774414 0.727539 0.904297 0.988281 0.994141 0.995117 0.990234 0.883789 0.747070 0.785156 0.857422 0.868164 0.891602 0.895508 0.910156 0.890625 0.862305 0.862305 0.852539 0.875000 0.866211 0.890625 0.885742 0.937500 0.945312 0.963867 0.967773 0.980469 0.971680 0.979492 0.989258 0.988281 0.992188 0.994141 0.997070 0.997070 0.999023 0.999023 0.999023 0.999023 0.999023 0.999023 0.999023 0.999023 0.999023 0.999023 0.999023 0.999023 0.999023 0.999023 0.999023 0.999023 0.999023 0.999023 0.999023 0.999023 0.999023 0.999023 0.999023 0.999023 0.999023 0.999023 0.999023 0.999023 0.999023 0.999023 0.999023 0.999023 0.999023 0.999023 0.999023 0.999023 0.999023 0.999023 0.999023 0.999023 0.999023 0.999023 0.999023 0.999023 0.999023 0.999023 0.999023 0.999023 0.999023 0.999023 0.999023 0.999023 0.999023 0.999023 0.999023 0.999023 0.999023 0.999023 0.998047 0.997070 0.998047 0.994141 0.992188 0.992188 0.991211 0.990234 0.995117 0.978516 0.982422 0.979492 0.966797 0.957031 0.959961 0.950195 0.945312 0.928711 0.964844 0.964844 0.952148 0.937500 0.958984 0.958008 0.959961 0.971680 0.962891 0.966797 0.970703 0.974609 0.980469 0.982422 0.982422 0.989258 0.990234 0.993164 0.997070 0.998047 0.999023 0.999023 0.999023 0.999023 0.999023 0.999023 0.999023 0.999023 0.999023 0.999023 0.999023 0.999023 0.999023 0.998047 0.999023 0.999023 0.997070 0.998047 0.993164 0.993164 0.999023 0.999023 0.994141 0.997070 0.996094 0.996094 0.992188 0.995117 0.995117 0.995117 0.995117 0.993164 0.998047 0.998047 0.999023 0.999023 0.999023 0.999023 0.999023 0.999023 0.999023 0.999023 0.999023 0.999023 0.999023 0.999023 0.999023 0.999023 0.999023 0.999023 0.999023 0.999023 0.999023 0.999023 0.999023 0.999023 0.999023 0.999023 0.999023 0.999023 0.999023 0.999023 0.999023 0.999023 0.999023 0.999023 0.999023 0.999023 0.999023 0.999023 0.999023 0.999023 0.999023 0.999023 0.999023 0.999023 0.999023 0.999023 0.999023 0.999023 0.999023 0.999023 0.999023 0.999023 0.999023 0.999023 0.999023 0.999023 0.999023 0.999023 0.999023 0.999023 0.999023 0.999023 0.999023 0.999023 0.999023 0.999023 0.999023 0.999023 0.999023 0.997070 0.987305 0.982422 0.972656 0.954102 0.932617 0.920898 0.920898 0.877930 0.876953 0.858398 0.837891 0.814453 0.803711 0.776367 0.769531 0.724609 0.708984 0.683594 0.684570 0.650391 0.636719 0.591797 0.663086 0.690430 0.690430 0.707031 0.720703 0.712891 0.664062 0.680664 0.706055 0.744141 0.774414 0.786133 0.800781 0.827148 0.834961
0.993164 0.978516 0.965820 0.943359 0.948242 0.944336 0.919922 0.894531 0.845703 0.803711 0.674805 0.653320 0.699219 0.872070 0.771484 0.549805 0.465820 0.426758 0.456055 0.521484 0.548828 0.596680 0.658203 0.657227 0.692383 0.725586 0.732422 0.767578 0.782227 0.820312 0.834961 0.819336 0.819336 0.825195 0.847656 0.815430 0.795898 0.772461 0.735352 0.748047 0.739258 0.707031 0.684570 0.673828 0.611328 0.559570 0.531250 0.420898 0.465820 0.577148 0.912109 0.742188 0.653320 0.652344 0.749023 0.815430 0.861328 0.855469 0.856445 0.831055 0.776367 0.722656 0.898438 0.977539 0.993164 0.999023 0.991211 0.887695 0.743164 0.768555 0.875977 0.881836 0.900391 0.913086 0.923828 0.912109 0.922852 0.903320 0.897461 0.904297 0.908203 0.918945 0.947266 0.948242 0.962891 0.963867 0.968750 0.967773 0.977539 0.986328 0.987305 0.995117 0.990234 0.997070 0.994141 0.995117 0.999023 0.999023 0.999023 0.999023 0.999023 0.999023 0.999023 0.999023 0.999023 0.999023 0.999023 0.999023 0.999023 0.999023 0.999023 0.999023 0.999023 0.999023 0.999023 0.999023 0.999023 0.999023 0.999023 0.999023 0.999023 0.999023 0.999023 0.999023 0.999023 0.999023 0.999023 0.999023 0.999023 0.999023 0.999023 0.999023 0.999023 0.999023 0.999023 0.999023 0.999023 0.999023 0.999023 0.999023 0.999023 0.999023 0.999023 0.999023 0.999023 0.999023 0.999023 0.999023 0.999023 0.999023 0.999023 0.999023 0.999023 0.999023 0.999023 0.999023 0.999023 0.992188 0.992188 0.996094 0.992188 0.991211 0.988281 0.985352 0.977539 0.982422 0.968750 0.960938 0.958984 0.963867 0.946289 0.935547 0.944336 0.930664 0.936523 0.937500 0.938477 0.933594 0.948242 0.953125 0.959961 0.973633 0.970703 0.977539 0.991211 0.987305 0.990234 0.989258 0.990234 0.994141 0.999023 0.999023 0.999023 0.999023 0.999023 0.999023 0.999023 0.999023 0.999023 0.999023 0.998047 0.997070 0.997070 0.995117 0.997070 0.999023 0.998047 0.995117 0.995117 0.990234 0.994141 0.991211 0.991211 0.985352 0.987305 0.994141 0.992188 0.997070 0.993164 0.993164 0.995117 0.993164 0.994141 0.993164 0.995117 0.993164 0.999023 0.998047 0.999023 0.998047 0.998047 0.999023 0.999023 0.999023 0.999023 0.999023 0.999023 0.999023 0.999023 0.999023 0.999023 0.999023 0.999023 0.999023 0.999023 0.999023 0.999023 0.999023 0.999023 0.999023 0.999023 0.999023 0.999023 0.999023 0.999023 0.999023 0.999023 0.999023 0.999023 0.999023 0.999023 0.999023 0.999023 0.999023 0.999023 0.999023 0.999023 0.999023 0.999023 0.999023 0.999023 0.999023 0.999023 0.999023 0.999023 0.999023 0.999023 0.999023 0.999023 0.999023 0.999023 0.999023 0.999023 0.999023 0.999023 0.999023 0.999023 0.999023 0.999023 0.999023 0.999023 0.999023 0.998047 0.991211 0.986328 0.966797 0.955078 0.941406 0.917969 0.915039 0.898438 0.886719 0.852539 0.824219 0.831055 0.811523 0.745117 0.738281 0.733398 0.694336 0.641602 0.647461 0.586914 0.595703 0.586914 0.552734 0.585938 0.755859 0.871094 0.892578 0.866211 0.769531 0.678711 0.632812 0.667969 0.714844 0.745117 0.779297 0.799805 0.797852 0.833008
0.984375 0.977539 0.969727 0.970703 0.953125 0.943359 0.939453 0.883789 0.822266 0.768555 0.711914 0.665039 0.719727 0.880859 0.892578 0.670898 0.538086 0.491211 0.492188 0.494141 0.549805 0.580078 0.654297 0.669922 0.686523 0.733398 0.752930 0.775391 0.788086 0.794922 0.799805 0.812500 0.822266 0.859375 0.833008 0.771484 0.775391 0.775391 0.746094 0.732422 0.704102 0.654297 0.648438 0.583008 0.574219 0.541992 0.513672 0.493164 0.520508 0.693359 0.957031 0.753906 0.673828 0.673828 0.738281 0.832031 0.884766 0.879883 0.875000 0.865234 0.785156 0.773438 0.875000 0.889648 0.908203 0.893555 0.894531 0.852539 0.790039 0.822266 0.863281 0.922852 0.908203 0.922852 0.931641 0.945312 0.935547 0.946289 0.941406 0.932617 0.939453 0.946289 0.952148 0.958984 0.967773 0.964844 0.973633 0.969727 0.980469 0.981445 0.984375 0.988281 0.988281 0.994141 0.993164 0.998047 0.999023 0.999023 0.999023 0.999023 0.999023 0.999023 0.999023 0.999023 0.999023 0.999023 0.999023 0.999023 0.999023 0.999023 0.999023 0.999023 0.999023 0.999023 0.999023 0.999023 0.999023 0.999023 0.999023 0.999023 0.999023 0.999023 0.999023 0.999023 0.999023 0.999023 0.999023 0.999023 0.999023 0.999023 0.999023 0.999023 0.999023 0.999023 0.999023 0.999023 0.999023 0.999023 0.999023 0.999023 0.999023 0.999023 0.999023 0.999023 0.999023 0.999023 0.999023 0.999023 0.999023 0.999023 0.999023 0.999023 0.999023 0.999023 0.998047 0.998047 0.999023 0.998047 0.995117 0.996094 0.992188 0.989258 0.991211 0.991211 0.982422 0.983398 0.972656 0.974609 0.961914 0.961914 0.966797 0.942383 0.931641 0.908203 0.874023 0.895508 0.891602 0.904297 0.924805 0.948242 0.938477 0.964844 0.963867 0.974609 0.978516 0.986328 0.987305 0.991211 0.992188 0.994141 0.997070 0.999023 0.999023 0.999023 0.999023 0.999023 0.999023 0.999023 0.999023 0.999023 0.999023 0.994141 0.998047 0.992188 0.997070 0.988281 0.990234 0.987305 0.991211 0.988281 0.985352 0.985352 0.990234 0.986328 0.986328 0.988281 0.985352 0.992188 0.992188 0.990234 0.986328 0.994141 0.994141 0.991211 0.990234 0.997070 0.988281 0.991211 0.998047 0.997070 0.999023 0.999023 0.999023 0.999023 0.999023 0.999023 0.999023 0.999023 0.999023 0.999023 0.999023 0.999023 0.999023 0.999023 0.999023 0.999023 0.999023 0.999023 0.999023 0.999023 0.999023 0.999023 0.999023 0.999023 0.999023 0.999023 0.999023 0.999023 0.999023 0.999023 0.999023 0.999023 0.999023 0.999023 0.999023 0.999023 0.999023 0.999023 0.999023 0.999023 0.999023 0.999023 0.999023 0.999023 0.999023 0.999023 0.999023 0.999023 0.999023 0.999023 0.999023 0.999023 0.999023 0.999023 0.999023 0.999023 0.999023 0.999023 0.999023 0.999023 0.999023 0.999023 0.998047 0.991211 0.980469 0.975586 0.967773 0.952148 0.909180 0.906250 0.879883 0.864258 0.859375 0.788086 0.799805 0.782227 0.760742 0.713867 0.699219 0.639648 0.638672 0.587891 0.595703 0.564453 0.552734 0.583008 0.677734 0.845703 0.992188 0.999023 0.998047 0.897461 0.714844 0.646484 0.642578 0.670898 0.699219 0.740234 0.768555 0.791016 0.820312
0.980469 0.975586 0.972656 0.968750 0.955078 0.924805 0.921875 0.887695 0.821289 0.784180 0.700195 0.698242 0.683594 0.760742 0.915039 0.750000 0.581055 0.502930 0.495117 0.521484 0.574219 0.614258 0.672852 0.692383 0.696289 0.761719 0.699219 0.732422 0.772461 0.807617 0.812500 0.818359 0.807617 0.791992 0.812500 0.791016 0.772461 0.740234 0.722656 0.692383 0.674805 0.620117 0.578125 0.548828 0.548828 0.600586 0.595703 0.627930 0.801758 0.864258 0.762695 0.726562 0.678711 0.743164 0.786133 0.837891 0.897461 0.887695 0.875000 0.861328 0.849609 0.829102 0.812500 0.819336 0.799805 0.807617 0.835938 0.837891 0.835938 0.865234 0.904297 0.893555 0.936523 0.931641 0.942383 0.931641 0.947266 0.950195 0.954102 0.961914 0.958008 0.959961 0.966797 0.973633 0.977539 0.966797 0.985352 0.981445 0.975586 0.973633 0.986328 0.989258 0.991211 0.995117 0.997070 0.998047 0.999023 0.999023 0.999023 0.999023 0.999023 0.999023 0.999023 0.999023 0.999023 0.999023 0.999023 0.999023 0.999023 0.999023 0.999023 0.999023 0.999023 0.999023 0.999023 0.999023 0.999023 0.999023 0.999023 0.999023 0.999023 0.999023 0.999023 0.999023 0.999023 0.999023 0.999023 0.999023 0.999023 0.999023 0.999023 0.999023 0.999023 0.999023 0.999023 0.999023 0.999023 0.999023 0.999023 0.999023 0.999023 0.999023 0.999023 0.999023 0.999023 0.999023 0.999023 0.999023 0.999023 0.999023 0.999023 0.999023 0.999023 0.999023 0.999023 0.999023 0.997070 0.997070 0.999023 0.993164 0.994141 0.991211 0.985352 0.987305 0.983398 0.979492 0.977539 0.973633 0.961914 0.962891 0.964844 0.928711 0.912109 0.858398 0.846680 0.852539 0.851562 0.845703 0.874023 0.921875 0.948242 0.953125 0.965820 0.972656 0.990234 0.990234 0.988281 0.991211 0.986328 0.993164 0.995117 0.997070 0.999023 0.999023 0.999023 0.999023 0.998047 0.999023 0.999023 0.996094 0.994141 0.992188 0.989258 0.990234 0.990234 0.990234 0.986328 0.978516 0.979492 0.980469 0.982422 0.988281 0.984375 0.985352 0.982422 0.986328 0.981445 0.984375 0.992188 0.987305 0.988281 0.989258 0.989258 0.992188 0.988281 0.991211 0.990234 0.992188 0.994141 0.996094 0.996094 0.998047 0.999023 0.999023 0.999023 0.999023 0.999023 0.999023 0.999023 0.999023 0.999023 0.999023 0.999023 0.999023 0.999023 0.999023 0.999023 0.999023 0.999023 0.999023 0.999023 0.999023 0.999023 0.999023 0.999023 0.999023 0.999023 0.999023 0.999023 0.999023 0.999023 0.999023 0.999023 0.999023 0.999023 0.999023 0.999023 0.999023 0.999023 0.999023 0.999023 0.999023 0.999023 0.999023 0.999023 0.999023 0.999023 0.999023 0.999023 0.999023 0.999023 0.999023 0.999023 0.999023 0.999023 0.999023 0.999023 0.999023 0.999023 0.999023 0.999023 0.999023 0.996094 0.991211 0.979492 0.968750 0.940430 0.918945 0.914062 0.892578 0.875977 0.845703 0.820312 0.820312 0.798828 0.736328 0.725586 0.670898 0.631836 0.593750 0.589844 0.574219 0.601562 0.590820 0.677734 0.735352 0.846680 0.912109 0.987305 0.969727 0.891602 0.933594 0.811523 0.652344 0.653320 0.674805 0.696289 0.741211 0.755859 0.791016 0.801758
0.991211 0.972656 0.974609 0.969727 0.956055 0.937500 0.921875 0.870117 0.828125 0.790039 0.719727 0.672852 0.629883 0.647461 0.727539 0.943359 0.642578 0.524414 0.500000 0.542969 0.573242 0.611328 0.639648 0.675781 0.699219 0.733398 0.735352 0.766602 0.754883 0.779297 0.806641 0.786133 0.792969 0.791992 0.808594 0.764648 0.768555 0.736328 0.685547 0.657227 0.674805 0.593750 0.586914 0.621094 0.667969 0.673828 0.738281 0.885742 0.729492 0.641602 0.629883 0.668945 0.725586 0.753906 0.803711 0.809570 0.847656 0.902344 0.886719 0.888672 0.875000 0.859375 0.839844 0.816406 0.780273 0.788086 0.808594 0.841797 0.865234 0.888672 0.916016 0.919922 0.921875 0.937500 0.941406 0.950195 0.954102 0.956055 0.954102 0.962891 0.956055 0.967773 0.982422 0.978516 0.968750 0.963867 0.976562 0.975586 0.981445 0.985352 0.983398 0.989258 0.992188 0.993164 0.999023 0.999023 0.999023 0.999023 0.999023 0.999023 0.999023 0.999023 0.999023 0.999023 0.999023 0.999023 0.999023 0.999023 0.999023 0.999023 0.999023 0.999023 0.999023 0.999023 0.999023 0.999023 0.999023 0.999023 0.999023 0.999023 0.999023 0.999023 0.999023 0.999023 0.999023 0.999023 0.999023 0.999023 0.999023 0.999023 0.999023 0.999023 0.999023 0.999023 0.999023 0.999023 0.999023 0.999023 0.999023 0.999023 0.999023 0.999023 0.999023 0.999023 0.999023 0.999023 0.999023 0.999023 0.999023 0.999023 0.999023 0.999023 0.999023 0.999023 0.999023 0.999023 0.999023 0.999023 0.999023 0.996094 0.995117 0.993164 0.992188 0.990234 0.988281 0.983398 0.977539 0.967773 0.969727 0.952148 0.940430 0.896484 0.865234 0.837891 0.840820 0.850586 0.842773 0.840820 0.867188 0.905273 0.934570 0.951172 0.958984 0.975586 0.985352 0.987305 0.986328 0.991211 0.991211 0.996094 0.997070 0.998047 0.999023 0.999023 0.999023 0.998047 0.999023 0.999023 0.993164 0.998047 0.986328 0.990234 0.983398 0.984375 0.981445 0.983398 0.985352 0.985352 0.970703 0.972656 0.977539 0.978516 0.976562 0.971680 0.979492 0.983398 0.977539 0.973633 0.980469 0.984375 0.984375 0.984375 0.982422 0.991211 0.980469 0.988281 0.989258 0.983398 0.988281 0.993164 0.993164 0.994141 0.998047 0.998047 0.999023 0.999023 0.999023 0.999023 0.999023 0.999023 0.999023 0.999023 0.999023 0.999023 0.999023 0.999023 0.999023 0.999023 0.999023 0.999023 0.999023 0.999023 0.999023 0.999023 0.999023 0.999023 0.999023 0.999023 0.999023 0.999023 0.999023 0.999023 0.999023 0.999023 0.999023 0.999023 0.999023 0.999023 0.999023 0.999023 0.999023 0.999023 0.999023 0.999023 0.999023 0.999023 0.999023 0.999023 0.999023 0.999023 0.999023 0.999023 0.999023 0.999023 0.999023 0.999023 0.999023 0.999023 0.999023 0.999023 0.999023 0.998047 0.993164 0.982422 0.972656 0.958984 0.951172 0.924805 0.905273 0.884766 0.867188 0.830078 0.815430 0.789062 0.725586 0.722656 0.692383 0.625000 0.599609 0.597656 0.594727 0.629883 0.674805 0.737305 0.807617 0.907227 0.970703 0.975586 0.842773 0.756836 0.705078 0.676758 0.859375 0.826172 0.746094 0.691406 0.667969 0.708008 0.723633 0.767578 0.782227
0.988281 0.980469 0.971680 0.950195 0.955078 0.936523 0.897461 0.869141 0.847656 0.775391 0.736328 0.662109 0.582031 0.582031 0.605469 0.845703 0.650391 0.562500 0.491211 0.507812 0.583984 0.596680 0.662109 0.685547 0.702148 0.729492 0.750000 0.750000 0.733398 0.765625 0.791016 0.800781 0.810547 0.750000 0.750000 0.717773 0.695312 0.647461 0.658203 0.620117 0.610352 0.644531 0.675781 0.764648 0.860352 0.998047 0.987305 0.792969 0.679688 0.625000 0.631836 0.709961 0.767578 0.805664 0.827148 0.857422 0.895508 0.910156 0.902344 0.898438 0.892578 0.885742 0.859375 0.862305 0.849609 0.864258 0.887695 0.893555 0.897461 0.914062 0.919922 0.932617 0.944336 0.945312 0.962891 0.964844 0.966797 0.960938 0.962891 0.962891 0.972656 0.979492 0.981445 0.982422 0.975586 0.979492 0.987305 0.979492 0.985352 0.991211 0.989258 0.994141 0.995117 0.998047 0.998047 0.999023 0.999023 0.999023 0.999023 0.999023 0.999023 0.999023 0.999023 0.999023 0.999023 0.999023 0.999023 0.999023 0.999023 0.999023 0.999023 0.999023 0.999023 0.999023 0.999023 0.999023 0.999023 0.999023 0.999023 0.999023 0.999023 0.999023 0.999023 0.999023 0.999023 0.999023 0.999023 0.999023 0.999023 0.999023 0.999023 0.999023 0.999023 0.999023 0.999023 0.999023 0.999023 0.999023 0.999023 0.999023 0.999023 0.999023 0.999023 0.999023 0.999023 0.999023 0.999023 0.999023 0.999023 0.999023 0.999023 0.999023 0.999023 0.999023 0.999023 0.999023 0.999023 0.999023 0.997070 0.997070 0.994141 0.996094 0.989258 0.986328 0.983398 0.992188 0.983398 0.986328 0.968750 0.960938 0.931641 0.897461 0.861328 0.829102 0.863281 0.918945 0.909180 0.833008 0.822266 0.881836 0.927734 0.958008 0.970703 0.978516 0.981445 0.990234 0.990234 0.994141 0.992188 0.990234 0.992188 0.997070 0.998047 0.999023 0.999023 0.999023 0.998047 0.996094 0.994141 0.984375 0.980469 0.982422 0.981445 0.980469 0.984375 0.974609 0.973633 0.969727 0.967773 0.975586 0.970703 0.974609 0.976562 0.977539 0.965820 0.974609 0.977539 0.969727 0.981445 0.970703 0.986328 0.983398 0.977539 0.982422 0.989258 0.988281 0.989258 0.987305 0.984375 0.988281 0.994141 0.992188 0.998047 0.999023 0.999023 0.999023 0.999023 0.999023 0.999023 0.999023 0.999023 0.999023 0.999023 0.999023 0.999023 0.999023 0.999023 0.999023 0.999023 0.999023 0.999023 0.999023 0.999023 0.999023 0.999023 0.999023 0.999023 0.999023 0.999023 0.999023 0.999023 0.999023 0.999023 0.999023 0.999023 0.999023 0.999023 0.999023 0.999023 0.999023 0.999023 0.999023 0.999023 0.999023 0.999023 0.999023 0.999023 0.999023 0.999023 0.999023 0.999023 0.999023 0.999023 0.999023 0.999023 0.999023 0.999023 0.999023 0.999023 0.999023 0.999023 0.995117 0.992188 0.980469 0.970703 0.971680 0.938477 0.917969 0.910156 0.877930 0.833984 0.822266 0.782227 0.775391 0.749023 0.708984 0.591797 0.588867 0.578125 0.572266 0.647461 0.697266 0.793945 0.880859 0.960938 0.985352 0.878906 0.773438 0.660156 0.543945 0.463867 0.430664 0.581055 0.863281 0.902344 0.742188 0.637695 0.685547 0.683594 0.725586 0.775391
0.991211 0.981445 0.966797 0.961914 0.925781 0.923828 0.903320 0.854492 0.825195 0.778320 0.737305 0.693359 0.641602 0.574219 0.654297 0.718750 0.844727 0.602539 0.531250 0.540039 0.542969 0.581055 0.615234 0.684570 0.697266 0.679688 0.696289 0.722656 0.715820 0.723633 0.752930 0.731445 0.719727 0.700195 0.692383 0.687500 0.693359 0.634766 0.622070 0.636719 0.692383 0.785156 0.980469 0.931641 0.791992 0.776367 0.728516 0.715820 0.679688 0.666016 0.704102 0.752930 0.806641 0.846680 0.842773 0.876953 0.879883 0.909180 0.898438 0.901367 0.919922 0.900391 0.902344 0.913086 0.913086 0.921875 0.919922 0.912109 0.934570 0.943359 0.936523 0.934570 0.947266 0.964844 0.957031 0.958984 0.972656 0.965820 0.977539 0.980469 0.974609 0.988281 0.987305 0.984375 0.986328 0.982422 0.981445 0.976562 0.989258 0.984375 0.995117 0.993164 0.997070 0.999023 0.999023 0.999023 0.999023 0.999023 0.999023 0.999023 0.999023 0.999023 0.999023 0.999023 0.999023 0.999023 0.999023 0.999023 0.999023 0.999023 0.999023 0.999023 0.999023 0.999023 0.999023 0.999023 0.999023 0.999023 0.999023 0.999023 0.999023 0.999023 0.999023 0.999023 0.999023 0.999023 0.999023 0.999023 0.999023 0.999023 0.999023 0.999023 0.999023 0.999023 0.999023 0.999023 0.999023 0.999023 0.999023 0.999023 0.999023 0.999023 0.999023 0.999023 0.999023 0.999023 0.999023 0.999023 0.999023 0.999023 0.999023 0.999023 0.999023 0.999023 0.999023 0.999023 0.998047 0.999023 0.997070 0.999023 0.993164 0.992188 0.994141 0.988281 0.992188 0.988281 0.988281 0.978516 0.976562 0.960938 0.948242 0.879883 0.840820 0.841797 0.928711 0.996094 0.982422 0.859375 0.789062 0.885742 0.917969 0.951172 0.964844 0.976562 0.986328 0.987305 0.987305 0.993164 0.993164 0.993164 0.997070 0.999023 0.998047 0.999023 0.999023 0.997070 0.996094 0.995117 0.987305 0.982422 0.979492 0.980469 0.973633 0.969727 0.971680 0.965820 0.973633 0.974609 0.965820 0.982422 0.973633 0.963867 0.961914 0.966797 0.958984 0.967773 0.959961 0.973633 0.972656 0.974609 0.976562 0.984375 0.978516 0.983398 0.985352 0.982422 0.987305 0.990234 0.984375 0.981445 0.990234 0.992188 0.996094 0.999023 0.998047 0.999023 0.999023 0.999023 0.999023 0.999023 0.999023 0.999023 0.999023 0.999023 0.999023 0.999023 0.999023 0.999023 0.999023 0.999023 0.999023 0.999023 0.999023 0.999023 0.999023 0.999023 0.999023 0.999023 0.999023 0.999023 0.999023 0.999023 0.999023 0.999023 0.999023 0.999023 0.999023 0.999023 0.999023 0.999023 0.999023 0.999023 0.999023 0.999023 0.999023 0.999023 0.999023 0.999023 0.999023 0.999023 0.999023 0.999023 0.999023 0.999023 0.999023 0.999023 0.999023 0.999023 0.999023 0.999023 0.999023 0.996094 0.989258 0.977539 0.976562 0.958008 0.940430 0.900391 0.875977 0.855469 0.840820 0.826172 0.777344 0.763672 0.722656 0.692383 0.612305 0.607422 0.637695 0.658203 0.754883 0.862305 0.951172 0.994141 0.995117 0.787109 0.642578 0.601562 0.548828 0.467773 0.444336 0.462891 0.502930 0.701172 0.996094 0.791992 0.657227 0.638672 0.666016 0.686523 0.755859
0.993164 0.980469 0.975586 0.964844 0.937500 0.927734 0.910156 0.855469 0.843750 0.848633 0.773438 0.723633 0.656250 0.611328 0.624023 0.650391 0.956055 0.654297 0.545898 0.524414 0.523438 0.552734 0.615234 0.617188 0.658203 0.666016 0.685547 0.714844 0.730469 0.719727 0.691406 0.665039 0.672852 0.664062 0.650391 0.668945 0.675781 0.693359 0.727539 0.831055 0.982422 0.870117 0.733398 0.670898 0.658203 0.647461 0.675781 0.679688 0.716797 0.728516 0.804688 0.819336 0.835938 0.865234 0.869141 0.879883 0.911133 0.897461 0.916016 0.908203 0.929688 0.926758 0.927734 0.942383 0.946289 0.946289 0.959961 0.951172 0.938477 0.941406 0.946289 0.941406 0.955078 0.958984 0.969727 0.966797 0.969727 0.976562 0.978516 0.979492 0.990234 0.988281 0.988281 0.986328 0.981445 0.985352 0.989258 0.990234 0.990234 0.990234 0.992188 0.996094 0.997070 0.999023 0.999023 0.999023 0.999023 0.999023 0.999023 0.999023 0.999023 0.999023 0.999023 0.999023 0.999023 0.999023 0.999023 0.999023 0.999023 0.999023 0.999023 0.999023 0.999023 0.999023 0.999023 0.999023 0.999023 0.999023 0.999023 0.999023 0.999023 0.999023 0.999023 0.999023 0.999023 0.999023 0.999023 0.999023 0.999023 0.999023 0.999023 0.999023 0.999023 0.999023 0.999023 0.999023 0.999023 0.999023 0.999023 0.999023 0.999023 0.999023 0.999023 0.999023 0.999023 0.999023 0.999023 0.999023 0.999023 0.999023 0.999023 0.999023 0.999023 0.999023 0.999023 0.998047 0.998047 0.998047 0.997070 0.997070 0.998047 0.997070 0.984375 0.992188 0.993164 0.975586 0.988281 0.978516 0.979492 0.958984 0.943359 0.896484 0.851562 0.816406 0.901367 0.990234 0.968750 0.841797 0.814453 0.852539 0.925781 0.948242 0.964844 0.977539 0.980469 0.984375 0.988281 0.995117 0.990234 0.997070 0.994141 0.999023 0.999023 0.999023 0.999023 0.997070 0.991211 0.985352 0.982422 0.984375 0.981445 0.963867 0.973633 0.971680 0.969727 0.972656 0.973633 0.955078 0.956055 0.965820 0.965820 0.962891 0.955078 0.955078 0.955078 0.956055 0.955078 0.958008 0.962891 0.968750 0.964844 0.972656 0.972656 0.964844 0.984375 0.983398 0.976562 0.980469 0.984375 0.987305 0.982422 0.989258 0.995117 0.997070 0.997070 0.999023 0.999023 0.999023 0.999023 0.999023 0.999023 0.999023 0.999023 0.999023 0.999023 0.999023 0.999023 0.999023 0.999023 0.999023 0.999023 0.999023 0.999023 0.999023 0.999023 0.999023 0.999023 0.999023 0.999023 0.999023 0.999023 0.999023 0.999023 0.999023 0.999023 0.999023 0.999023 0.999023 0.999023 0.999023 0.999023 0.999023 0.999023 0.999023 0.999023 0.999023 0.999023 0.999023 0.999023 0.999023 0.999023 0.999023 0.999023 0.999023 0.999023 0.999023 0.999023 0.999023 0.999023 0.999023 0.998047 0.994141 0.990234 0.981445 0.971680 0.948242 0.943359 0.911133 0.908203 0.842773 0.840820 0.799805 0.775391 0.732422 0.654297 0.716797 0.759766 0.754883 0.775391 0.809570 0.912109 0.979492 0.986328 0.857422 0.754883 0.658203 0.557617 0.524414 0.517578 0.487305 0.490234 0.497070 0.468750 0.650391 0.978516 0.787109 0.631836 0.589844 0.615234 0.690430 0.759766
0.989258 0.979492 0.968750 0.941406 0.934570 0.920898 0.903320 0.864258 0.863281 0.822266 0.781250 0.740234 0.696289 0.596680 0.612305 0.637695 0.751953 0.807617 0.600586 0.527344 0.508789 0.579102 0.583984 0.587891 0.620117 0.665039 0.646484 0.669922 0.663086 0.646484 0.623047 0.663086 0.633789 0.656250 0.669922 0.702148 0.741211 0.851562 0.997070 0.873047 0.725586 0.680664 0.611328 0.652344 0.634766 0.660156 0.701172 0.723633 0.765625 0.791016 0.827148 0.835938 0.864258 0.857422 0.893555 0.889648 0.907227 0.928711 0.919922 0.932617 0.931641 0.927734 0.955078 0.958984 0.953125 0.971680 0.968750 0.962891 0.969727 0.960938 0.961914 0.959961 0.969727 0.959961 0.968750 0.966797 0.979492 0.982422 0.990234 0.984375 0.988281 0.987305 0.988281 0.988281 0.992188 0.993164 0.990234 0.988281 0.997070 0.993164 0.996094 0.998047 0.998047 0.999023 0.999023 0.999023 0.999023 0.999023 0.999023 0.999023 0.999023 0.999023 0.999023 0.999023 0.999023 0.999023 0.999023 0.999023 0.999023 0.999023 0.999023 0.999023 0.999023 0.999023 0.999023 0.999023 0.999023 0.999023 0.999023 0.999023 0.999023 0.999023 0.999023 0.999023 0.999023 0.999023 0.999023 0.999023 0.999023 0.999023 0.999023 0.999023 0.999023 0.999023 0.999023 0.999023 0.999023 0.999023 0.999023 0.999023 0.999023 0.999023 0.999023 0.999023 0.999023 0.999023 0.999023 0.999023 0.999023 0.999023 0.999023 0.999023 0.999023 0.999023 0.999023 0.999023 0.998047 0.999023 0.999023 0.999023 0.997070 0.997070 0.991211 0.993164 0.986328 0.993164 0.979492 0.976562 0.976562 0.965820 0.937500 0.890625 0.841797 0.828125 0.861328 0.909180 0.906250 0.828125 0.820312 0.866211 0.928711 0.947266 0.982422 0.985352 0.988281 0.983398 0.992188 0.995117 0.994141 0.995117 0.996094 0.998047 0.998047 0.999023 0.995117 0.997070 0.993164 0.983398 0.976562 0.984375 0.973633 0.976562 0.964844 0.971680 0.962891 0.963867 0.954102 0.953125 0.965820 0.943359 0.949219 0.950195 0.935547 0.946289 0.951172 0.952148 0.945312 0.943359 0.939453 0.957031 0.952148 0.963867 0.965820 0.976562 0.973633 0.977539 0.986328 0.982422 0.986328 0.987305 0.980469 0.989258 0.988281 0.992188 0.994141 0.999023 0.999023 0.999023 0.999023 0.999023 0.999023 0.999023 0.999023 0.999023 0.999023 0.999023 0.999023 0.999023 0.999023 0.999023 0.999023 0.999023 0.999023 0.999023 0.999023 0.999023 0.999023 0.999023 0.999023 0.999023 0.999023 0.999023 0.999023 0.999023 0.999023 0.999023 0.999023 0.999023 0.999023 0.999023 0.999023 0.999023 0.999023 0.999023 0.999023 0.999023 0.999023 0.999023 0.999023 0.999023 0.999023 0.999023 0.999023 0.999023 0.999023 0.999023 0.999023 0.999023 0.999023 0.998047 0.996094 0.995117 0.993164 0.974609 0.969727 0.938477 0.925781 0.919922 0.892578 0.847656 0.831055 0.781250 0.745117 0.685547 0.660156 0.726562 0.835938 0.933594 0.932617 0.982422 0.980469 0.861328 0.756836 0.676758 0.629883 0.574219 0.540039 0.511719 0.483398 0.500977 0.521484 0.491211 0.515625 0.562500 0.796875 0.799805 0.674805 0.583008 0.587891 0.646484 0.720703
