-2.601008824798681189e+02 -2.611397918124321791e+02 -2.621210908336227021e+02 -2.630201755514941624e+02 -2.638735239379873292e+02 -2.647301060448221506e+02 -2.656398353966438890e+02 -2.666131997203723358e+02 -2.675338268696737032e+02 -2.682120282803293776e+02 -2.685895536231566894e+02 -2.688072928944159230e+02 -2.689897332333692930e+02 -2.691689460597925745e+02 -2.693480473219808573e+02 -2.695273578841355402e+02 -2.697080437131102144e+02 -2.698935596037045457e+02 -2.700882423395895557e+02 -2.702925317814122081e+02 -2.705024873837604673e+02 -2.707142991306823205e+02 -2.709264284190081753e+02 -2.711384518078797896e+02 -2.713484822381873300e+02 -2.715450919936621403e+02 -2.716991147660575621e+02 -2.717919684922147781e+02 -2.718470950061499138e+02 -2.718921481399534628e+02 -2.719359665392285024e+02 -2.719797137744114934e+02 -2.720234591057452462e+02 -2.720672012368305559e+02 -2.721109289385740908e+02 -2.721546307736716699e+02 -2.721983131194358521e+02 -2.722419887805622238e+02 -2.722856633645844227e+02 -2.723293343969964440e+02 -2.723728900752979598e+02 -2.724149645200648138e+02 -2.724492702770478445e+02 -2.724655667613340597e+02 -2.724622854770271942e+02 -2.724492982101145344e+02 -2.724342708039295076e+02 -2.724190603524139078e+02 -2.724036984990790415e+02 -2.723869222188347976e+02 -2.723627789518210989e+02 -2.723176258176695228e+02 -2.722391252407355751e+02 -2.721313558576246123e+02 -2.720097965889510760e+02 -2.718848595121002063e+02 -2.717595831018954868e+02 -2.716360255220247950e+02 -2.715262426218124574e+02 -2.714666387481753418e+02 -2.714868303306178632e+02 -2.715614848897422462e+02 -2.716528662354111248e+02 -2.717466689693790158e+02 -2.718406334982546468e+02 -2.719346783839876593e+02 -2.720296553946202494e+02 -2.721277409272981913e+02 -2.722106140314951972e+02 -2.721719606696455003e+02 -2.718679614250889358e+02 -2.713207409963993086e+02 -2.706730374015276084e+02 -2.700081714435344793e+02 -2.693423646112464667e+02 -2.686765619021354610e+02 -2.680107608354560398e+02 -2.673450011261161308e+02 -2.666806486302569965e+02 -2.660351790555116054e+02 -2.654983048360221574e+02 -2.652504765672222220e+02 -2.653642309024570523e+02 -2.656833567362309623e+02 -2.660806424947287496e+02 -2.665729942269181834e+02 -2.671935495012617139e+02 -2.679003910940413107e+02 -2.686353775223078060e+02 -2.693748572908364736e+02 -2.701146739651097732e+02 -2.708545018296674129e+02 -2.715943297892932833e+02 -2.723341577489190968e+02 -2.730739857085450808e+02 -2.738138136681709511e+02 -2.745536416277968215e+02 -2.752934695694397078e+02 -2.760332966537665698e+02 -2.767730857685266983e+02 -2.775119939465788548e+02 -2.782413240062222712e+02 -2.789332243968474359e+02 -2.796298286148921193e+02 -2.805687650980905801e+02 -2.815506828368565948e+02 -2.818195491541805495e+02 -2.814629912701811350e+02 -2.809415534300846957e+02 -2.804041259929219905e+02 -2.798795753294113524e+02 -2.794487639915172394e+02 -2.794141953365947302e+02 -2.800997078680989034e+02
-2.597762715998320004e+02 -2.608348521150933834e+02 -2.618385217726823839e+02 -2.627548090782825625e+02 -2.636195863447175611e+02 -2.644948251474227163e+02 -2.654317262385492313e+02 -2.664314819716119018e+02 -2.674006199437283158e+02 -2.681599445574190668e+02 -2.686005691985674844e+02 -2.688410360574433753e+02 -2.690272737021743978e+02 -2.692067590669123547e+02 -2.693858522047509041e+02 -2.695649778218520396e+02 -2.697445092093850008e+02 -2.699261557563152110e+02 -2.701138739186794737e+02 -2.703114366739606567e+02 -2.705179482358437326e+02 -2.707288347558244936e+02 -2.709408316202881224e+02 -2.711529323400501994e+02 -2.713641107610297922e+02 -2.715667470555442833e+02 -2.717346561105941873e+02 -2.718424478203087347e+02 -2.719048607194613965e+02 -2.719513948052877481e+02 -2.719953305611289238e+02 -2.720390812637529052e+02 -2.720828263875894208e+02 -2.721265672726669891e+02 -2.721702915188132010e+02 -2.722139889476680992e+02 -2.722576689089886486e+02 -2.723013440617205561e+02 -2.723450186107850186e+02 -2.723886915266734832e+02 -2.724323057130313259e+02 -2.724750803011100970e+02 -2.725125683193211898e+02 -2.725344308977486207e+02 -2.725350791135242616e+02 -2.725233065512987878e+02 -2.725084544972641538e+02 -2.724932627293137557e+02 -2.724780327783120129e+02 -2.724625015664922785e+02 -2.724445767913070995e+02 -2.724160360101050173e+02 -2.723613812638782292e+02 -2.722719766951500446e+02 -2.721581292531132021e+02 -2.720349611027556875e+02 -2.719098295241823280e+02 -2.717852594151025869e+02 -2.716693284466903151e+02 -2.715926373607583173e+02 -2.715909829035887242e+02 -2.716537616751787709e+02 -2.717425835906016118e+02 -2.718361739667983557e+02 -2.719301327186166191e+02 -2.720242104931458016e+02 -2.721196049611367016e+02 -2.722202549809636594e+02 -2.723159970379680317e+02 -2.723244318705868636e+02 -2.720980927051650724e+02 -2.716019218377673496e+02 -2.709681270491313398e+02 -2.703049659895801824e+02 -2.696392512054169401e+02 -2.689734440258658879e+02 -2.683076384144600297e+02 -2.676418485521490993e+02 -2.669765955037418053e+02 -2.663201092763500810e+02 -2.657306283179981392e+02 -2.653800297427715122e+02 -2.654055957540304007e+02 -2.656974810325106660e+02 -2.661233250932038459e+02 -2.666766765590559771e+02 -2.673463810190102095e+02 -2.680720313230481793e+02 -2.688104169395864460e+02 -2.695501721644833992e+02 -2.702899986157980265e+02 -2.710298265727309399e+02 -2.717696545323568671e+02 -2.725094824919827374e+02 -2.732493104516086078e+02 -2.739891384056687684e+02 -2.747289661579660560e+02 -2.754687905003604556e+02 -2.762085751689363633e+02 -2.769479469448740474e+02 -2.776840994461421133e+02 -2.784020633278976220e+02 -2.790550578354225308e+02 -2.795971455825863359e+02 -2.800707488185586271e+02 -2.803786940807872270e+02 -2.802483507781755634e+02 -2.798046715168243281e+02 -2.792945427696290039e+02 -2.787944154645173285e+02 -2.783360410408477605e+02 -2.779922459214168953e+02 -2.779949736093792581e+02 -2.786185339669070800e+02
-2.594845613209496378e+02 -2.605625566999123066e+02 -2.615838454421540291e+02 -2.625169300229181317e+02 -2.633917201005338597e+02 -2.642754608340407572e+02 -2.652265170736077380e+02 -2.662443059918585391e+02 -2.672470249666894233e+02 -2.680748739115298349e+02 -2.685916070068451518e+02 -2.688703196277668894e+02 -2.690644472488491488e+02 -2.692445615876720240e+02 -2.694236713818548878e+02 -2.696027591091688009e+02 -2.697819297821881150e+02 -2.699617538489907247e+02 -2.701445197176506667e+02 -2.703348108293882319e+02 -2.705355497645967375e+02 -2.707439179352599012e+02 -2.709553083496977024e+02 -2.711673601685341168e+02 -2.713790307777125008e+02 -2.715852218127063793e+02 -2.717649266541691304e+02 -2.718896831070940152e+02 -2.719618738314840130e+02 -2.720105732715747990e+02 -2.720546919958101171e+02 -2.720984487078922029e+02 -2.721421934255762949e+02 -2.721859322156113308e+02 -2.722296522971777222e+02 -2.722733460287723233e+02 -2.723170244546842014e+02 -2.723606993228618762e+02 -2.724043738504963699e+02 -2.724480478643486094e+02 -2.724916992025533204e+02 -2.725349445420315533e+02 -2.725747691523419007e+02 -2.726015042011845253e+02 -2.726067904309685446e+02 -2.725970736049842458e+02 -2.725826181977697615e+02 -2.725674578351450918e+02 -2.725522482618904405e+02 -2.725369921781559697e+02 -2.725211570633519500e+02 -2.725012488356351241e+02 -2.724659819086809307e+02 -2.724002793630146471e+02 -2.723019838615437607e+02 -2.721842299986459466e+02 -2.720600530371033301e+02 -2.719351678164706527e+02 -2.718155237535671631e+02 -2.717240792517573595e+02 -2.716989596748306894e+02 -2.717472088527555911e+02 -2.718324677738646074e+02 -2.719256898421924689e+02 -2.720196332838921762e+02 -2.721137556727335323e+02 -2.722096111126909364e+02 -2.723127780319806561e+02 -2.724203239584156222e+02 -2.724719317033318475e+02 -2.723202371356659910e+02 -2.718788232736506529e+02 -2.712630154713558568e+02 -2.706024433680827315e+02 -2.699366731565165765e+02 -2.692706439935934668e+02 -2.686046868693892975e+02 -2.679388230604592991e+02 -2.672731669615161536e+02 -2.666113761698396729e+02 -2.659906946548522910e+02 -2.655553815012915493e+02 -2.654774176236575158e+02 -2.657306708801031050e+02 -2.661935355609774660e+02 -2.668071659288406750e+02 -2.675116951147356303e+02 -2.682462375795017238e+02 -2.689856802391350357e+02 -2.697254955214071401e+02 -2.704653233575529612e+02 -2.712051513158327225e+02 -2.719449792754203941e+02 -2.726848072350463212e+02 -2.734246351896958345e+02 -2.741644627867699455e+02 -2.749042814142278530e+02 -2.756439871717846017e+02 -2.763828505510739433e+02 -2.771167290871255773e+02 -2.778283840533738385e+02 -2.784727083988800587e+02 -2.789671160785553639e+02 -2.792257530516343422e+02 -2.792471864546098459e+02 -2.790706601241186036e+02 -2.787161595653145696e+02 -2.782915769335828600e+02 -2.778878610553243789e+02 -2.775226615057091522e+02 -2.772232503297675521e+02 -2.770387257538359336e+02 -2.770844674291361116e+02 -2.775562992890151008e+02
-2.591940986104210651e+02 -2.602898600483472364e+02 -2.613311289348017681e+02 -2.622831694611434727e+02 -2.631688384886480208e+02 -2.640587119670150287e+02 -2.650205441914263247e+02 -2.660532010823301903e+02 -2.670786235898778500e+02 -2.679652146001348001e+02 -2.685674707038212432e+02 -2.688960761665587142e+02 -2.691013000247403397e+02 -2.692823519074257774e+02 -2.694614923608829145e+02 -2.696405747222014497e+02 -2.698196680362129314e+02 -2.699989046758245195e+02 -2.701792094921728449e+02 -2.703637916390380269e+02 -2.705572499815239667e+02 -2.707605998688046611e+02 -2.709701179107096323e+02 -2.711818020403394485e+02 -2.713936685610142376e+02 -2.716023438201696081e+02 -2.717926150291613112e+02 -2.719347722556483404e+02 -2.720180563035581258e+02 -2.720696050638888437e+02 -2.721140425579485509e+02 -2.721578158294168475e+02 -2.722015602829478667e+02 -2.722452963491022615e+02 -2.722890117409842219e+02 -2.723327023004273428e+02 -2.723763798197672941e+02 -2.724200545691775233e+02 -2.724637290895850583e+02 -2.725074035204607981e+02 -2.725510702393657425e+02 -2.725945357184103841e+02 -2.726357461395987229e+02 -2.726665560029772450e+02 -2.726772687357291716e+02 -2.726705612816427333e+02 -2.726567580050686956e+02 -2.726416514724248827e+02 -2.726264454194741802e+02 -2.726112310088365120e+02 -2.725959038148148466e+02 -2.725793661762421607e+02 -2.725561302852281642e+02 -2.725130251498696907e+02 -2.724370860050220244e+02 -2.723309321835067749e+02 -2.722098861018367870e+02 -2.720852306875375461e+02 -2.719629100276982854e+02 -2.718590360728742894e+02 -2.718116219172478623e+02 -2.718432502996874405e+02 -2.719229104915777953e+02 -2.720152511089995073e+02 -2.721091404328020644e+02 -2.722033645503039452e+02 -2.722998942175337902e+02 -2.724054906572749815e+02 -2.725215486952366177e+02 -2.726048100740761129e+02 -2.725208559070179035e+02 -2.721494467989786017e+02 -2.715663421180821615e+02 -2.709106108631340248e+02 -2.702426028941353593e+02 -2.695738442493521916e+02 -2.689059712260270203e+02 -2.682392037233562405e+02 -2.675730605374197353e+02 -2.669089616754637291e+02 -2.662696142709676224e+02 -2.657623387062574238e+02 -2.655770267006592462e+02 -2.657918217480673775e+02 -2.662972062717508379e+02 -2.669588972797882889e+02 -2.676830877773396651e+02 -2.684212710703021685e+02 -2.691610038961617875e+02 -2.699008259668673873e+02 -2.706406527161622080e+02 -2.713804800257991019e+02 -2.721203073787494873e+02 -2.728601347329649798e+02 -2.735999619148104784e+02 -2.743397808568332152e+02 -2.750794393802678997e+02 -2.758175028103104296e+02 -2.765466460790779593e+02 -2.772424621487061245e+02 -2.778461992233162619e+02 -2.782729275252223715e+02 -2.784526768719471761e+02 -2.783794427858172185e+02 -2.781407968584405239e+02 -2.778295462984474398e+02 -2.775050501552691458e+02 -2.772278227560570940e+02 -2.770181854091629248e+02 -2.768538217594141315e+02 -2.767327657639160634e+02 -2.766720048486692463e+02 -2.767153607961920443e+02 -2.770022185600569173e+02
-2.588801340232581651e+02 -2.600000943595172771e+02 -2.610740285342898801e+02 -2.620490179009282201e+02 -2.629461954465479039e+02 -2.638420206038441620e+02 -2.648144588765876506e+02 -2.658613497828907839e+02 -2.669050999164819586e+02 -2.678448273622167903e+02 -2.685339347992445482e+02 -2.689180188234140587e+02 -2.691374574016389829e+02 -2.693200898518454096e+02 -2.694993120297998530e+02 -2.696783955408794213e+02 -2.698574784021296864e+02 -2.700365871357254832e+02 -2.702160019299615215e+02 -2.703972182330290934e+02 -2.705840100544867255e+02 -2.707803583535140888e+02 -2.709859216554609702e+02 -2.711964083997157786e+02 -2.714082268972108523e+02 -2.716186880194995297e+02 -2.718174297325286943e+02 -2.719754965800482296e+02 -2.720716743627328924e+02 -2.721280713127413264e+02 -2.721733468630798143e+02 -2.722171815493505846e+02 -2.722609270795344401e+02 -2.723046602122722675e+02 -2.723483707399465743e+02 -2.723920583024580537e+02 -2.724357351247044789e+02 -2.724794098105566036e+02 -2.725230843285246465e+02 -2.725667588355833004e+02 -2.726104299353838769e+02 -2.726539877148720166e+02 -2.726960869303646859e+02 -2.727305031625911624e+02 -2.727469851554443494e+02 -2.727438232272771756e+02 -2.727308668476140951e+02 -2.727158431168834340e+02 -2.727006407786137174e+02 -2.726854314488676323e+02 -2.726702056039503077e+02 -2.726547256849282803e+02 -2.726371609112361512e+02 -2.726099793924363439e+02 -2.725578284633874091e+02 -2.724707105309699955e+02 -2.723579637667421594e+02 -2.722351592393465580e+02 -2.721114352198497954e+02 -2.719990234072103021e+02 -2.719324903548498469e+02 -2.719442510369468664e+02 -2.720144593655076051e+02 -2.721049037229842611e+02 -2.721986610275106955e+02 -2.722931034811033442e+02 -2.723907516535348918e+02 -2.724988877250434030e+02 -2.726201166678177970e+02 -2.727250446225182259e+02 -2.727106979839387577e+02 -2.724437315307906147e+02 -2.719272217854165206e+02 -2.712858293915582522e+02 -2.706102933101584540e+02 -2.699298215252093769e+02 -2.692525692837240285e+02 -2.685801571987985881e+02 -2.679102919025357892e+02 -2.672418242541984910e+02 -2.665863375903832093e+02 -2.660179007537385019e+02 -2.657337047568310027e+02 -2.659027792843071438e+02 -2.664339755508257781e+02 -2.671249008879009352e+02 -2.678577684703864179e+02 -2.685968984966603443e+02 -2.693365704912708907e+02 -2.700763354745158722e+02 -2.708161354473130018e+02 -2.715559422100118354e+02 -2.722957495003776671e+02 -2.730355568033509144e+02 -2.737753617456338020e+02 -2.745150767844395432e+02 -2.752533875253440669e+02 -2.759809912502353200e+02 -2.766631103878278850e+02 -2.772272671578274412e+02 -2.775920364699640004e+02 -2.777219694413146271e+02 -2.776428162424844004e+02 -2.774382965811377062e+02 -2.772207920449395147e+02 -2.770369016169211136e+02 -2.768854273629317504e+02 -2.767763437549989476e+02 -2.767099507737715953e+02 -2.766664712022436561e+02 -2.766351856615004863e+02 -2.766178011856431453e+02 -2.766336650339904963e+02 -2.767749540145157425e+02
-2.585425058413328543e+02 -2.596931008962392298e+02 -2.608112399607408634e+02 -2.618133051870119061e+02 -2.627230056985901001e+02 -2.636252386651805182e+02 -2.646085332720356291e+02 -2.656696382533328347e+02 -2.667286952568247216e+02 -2.677111943617308611e+02 -2.684794201792456079e+02 -2.689274975523380817e+02 -2.691708567838491035e+02 -2.693576020897548915e+02 -2.695371249032205583e+02 -2.697162168233363673e+02 -2.698952986581499545e+02 -2.700743843167480236e+02 -2.702535338682648671e+02 -2.704332307869075294e+02 -2.706155164099296258e+02 -2.708046991981742053e+02 -2.710040709856640433e+02 -2.712116484524045745e+02 -2.714227973697903735e+02 -2.716340765914773669e+02 -2.718379724481423523e+02 -2.720091979892238214e+02 -2.721210278154076150e+02 -2.721855797328849462e+02 -2.722325710485079071e+02 -2.722765447221570980e+02 -2.723202938466222349e+02 -2.723640240100545498e+02 -2.724077296555188923e+02 -2.724514142593582164e+02 -2.724950904200188688e+02 -2.725387650511594302e+02 -2.725824395674410425e+02 -2.726261140802750447e+02 -2.726697870402533113e+02 -2.727134027271472405e+02 -2.727561959704275978e+02 -2.727937724425404440e+02 -2.728158027494616817e+02 -2.728165888304384907e+02 -2.728048689488091441e+02 -2.727900261196418228e+02 -2.727748357673792725e+02 -2.727596272362585523e+02 -2.727444168764099004e+02 -2.727291715365859091e+02 -2.727134605723894651e+02 -2.726942180019165107e+02 -2.726606983625456451e+02 -2.725974255221110525e+02 -2.725010205010584059e+02 -2.723841561617569482e+02 -2.722608585700231743e+02 -2.721435125910697934e+02 -2.720608287334964643e+02 -2.720498494864839358e+02 -2.721070750063579453e+02 -2.721946533311079293e+02 -2.722881951551026987e+02 -2.723829626075022361e+02 -2.724821437148638665e+02 -2.725930435778644210e+02 -2.727176677696336924e+02 -2.728389979986601475e+02 -2.728977781850628617e+02 -2.727791278432317768e+02 -2.724083469087495928e+02 -2.718420034205117304e+02 -2.711807590214790480e+02 -2.704879443157658443e+02 -2.697928027520925411e+02 -2.691040613208950845e+02 -2.684192850029070883e+02 -2.677356666885488039e+02 -2.670581070603920466e+02 -2.664359809301230939e+02 -2.660499355236943302e+02 -2.661212036890094623e+02 -2.666152927859890838e+02 -2.673040215601996579e+02 -2.680372044647922394e+02 -2.687755886330594990e+02 -2.695146101477974412e+02 -2.702539842084739803e+02 -2.709935144101459628e+02 -2.717330750420458116e+02 -2.724726380387852487e+02 -2.732122010008691859e+02 -2.739517481648416606e+02 -2.746908098279396313e+02 -2.754235102637948103e+02 -2.761180043480057975e+02 -2.766923456482261372e+02 -2.770454094850797446e+02 -2.771614516998567410e+02 -2.771309339166339782e+02 -2.770304871706584890e+02 -2.769113127043757459e+02 -2.768198044963201596e+02 -2.767621471770912081e+02 -2.767221255098644406e+02 -2.766935555349748483e+02 -2.766746338744561058e+02 -2.766604450769103778e+02 -2.766478376942216073e+02 -2.766368057466288519e+02 -2.766347652431322786e+02 -2.766887465216627788e+02
-2.582112677577859472e+02 -2.593786093219563895e+02 -2.605380124659621970e+02 -2.615716595502000246e+02 -2.624973232191724719e+02 -2.634078755536985454e+02 -2.644023465155636927e+02 -2.654775017022358270e+02 -2.665480763844774401e+02 -2.675569877752831189e+02 -2.683904334619514884e+02 -2.689160063276390247e+02 -2.691995662306816257e+02 -2.693947271472025591e+02 -2.695749259044282553e+02 -2.697540381188057381e+02 -2.699331198676843542e+02 -2.701122019604857769e+02 -2.702912928151162077e+02 -2.704705008635605736e+02 -2.706505965750928908e+02 -2.708343885262664230e+02 -2.710264789159658676e+02 -2.712287172845641408e+02 -2.714377399537752922e+02 -2.716489036782617177e+02 -2.718557509095974751e+02 -2.720382396179010129e+02 -2.721673935571203629e+02 -2.722423235426219321e+02 -2.722917106068859425e+02 -2.723359035083469735e+02 -2.723796603630814843e+02 -2.724233875341280395e+02 -2.724670884020609378e+02 -2.725107701767123558e+02 -2.725544457116786816e+02 -2.725981202916182156e+02 -2.726417948063558470e+02 -2.726854693193562298e+02 -2.727291433521865542e+02 -2.727727953701271417e+02 -2.728160499247114785e+02 -2.728559272156180668e+02 -2.728828001296618595e+02 -2.728882540879396856e+02 -2.728786257158570834e+02 -2.728641889640903173e+02 -2.728490301404845582e+02 -2.728338225599231350e+02 -2.728186136205503090e+02 -2.728034010695084817e+02 -2.727881023304294104e+02 -2.727717743378735804e+02 -2.727493577935906615e+02 -2.727080589300310294e+02 -2.726344863512730399e+02 -2.725301813038876730e+02 -2.724102227909787644e+02 -2.722900411262417606e+02 -2.721930979219087021e+02 -2.721586556459883468e+02 -2.722009051997528104e+02 -2.722846140669000192e+02 -2.723777490926601672e+02 -2.724728742272171189e+02 -2.725737677242841528e+02 -2.726875413057949800e+02 -2.728146116090714486e+02 -2.729452397557315635e+02 -2.730555685950864699e+02 -2.730824127611236349e+02 -2.729325174695790679e+02 -2.725610610962726241e+02 -2.720075573901741564e+02 -2.713489303824013632e+02 -2.706492227644489503e+02 -2.699411504806862467e+02 -2.692330695380503585e+02 -2.685253086148056809e+02 -2.678201989158785068e+02 -2.671465574970362695e+02 -2.666364710342438684e+02 -2.665197551278316723e+02 -2.668722854161728719e+02 -2.675076532959367341e+02 -2.682297448598763481e+02 -2.689656576138421542e+02 -2.697032047272068098e+02 -2.704413610537943100e+02 -2.711797753254483609e+02 -2.719182397708358394e+02 -2.726567081151844150e+02 -2.733951750640092087e+02 -2.741335597123756997e+02 -2.748702194848332283e+02 -2.755895652694067621e+02 -2.762264754250363694e+02 -2.766691015820426287e+02 -2.768626732247327027e+02 -2.768816858199556350e+02 -2.768475301698297244e+02 -2.768105217256796777e+02 -2.767768030994978972e+02 -2.767517665954553081e+02 -2.767347588945059442e+02 -2.767211547841992569e+02 -2.767088006944115932e+02 -2.766972510359878470e+02 -2.766860746049254658e+02 -2.766749919770339829e+02 -2.766640510740076593e+02 -2.766552425524243972e+02 -2.766668717264132056e+02
-2.578869465300119828e+02 -2.590432408373018234e+02 -2.602414601825144587e+02 -2.613184321179060134e+02 -2.622671773053588709e+02 -2.631892535873742531e+02 -2.641945317057768534e+02 -2.652827870047433407e+02 -2.663634299678067237e+02 -2.673891183449283062e+02 -2.682785385996343166e+02 -2.688901848202675637e+02 -2.692248589154962701e+02 -2.694315240429199889e+02 -2.696127130924468247e+02 -2.697918592283454018e+02 -2.699709411664252912e+02 -2.701500229176104995e+02 -2.703291055038795321e+02 -2.705082074670935981e+02 -2.706875440275234723e+02 -2.708683621186290793e+02 -2.710541955672794074e+02 -2.712492910481710169e+02 -2.714538903338914224e+02 -2.716637742714444244e+02 -2.718726219759303149e+02 -2.720651261848518061e+02 -2.722114172089432600e+02 -2.722979173358233993e+02 -2.723506157564499972e+02 -2.723952435637884264e+02 -2.724390256089982358e+02 -2.724827498684841771e+02 -2.725264464269218365e+02 -2.725701259329885033e+02 -2.726138009901055739e+02 -2.726574755316766527e+02 -2.727011500452706514e+02 -2.727448245582710342e+02 -2.727884989928571713e+02 -2.728321658952982034e+02 -2.728756348621009238e+02 -2.729168761695391368e+02 -2.729478053890572937e+02 -2.729587036303762488e+02 -2.729521066515333132e+02 -2.729383281456850341e+02 -2.729232237150840774e+02 -2.729080178519194533e+02 -2.728928089847435103e+02 -2.728775997750765328e+02 -2.728623775803418425e+02 -2.728469372265240054e+02 -2.728296174454835636e+02 -2.728033665217627686e+02 -2.727533620260330736e+02 -2.726688935235284816e+02 -2.725578008724839947e+02 -2.724374463413697640e+02 -2.723294781382898009e+02 -2.722736573643416023e+02 -2.722983570428066287e+02 -2.723753722568543481e+02 -2.724673705979268448e+02 -2.725628045923801324e+02 -2.726654472126598989e+02 -2.727821028260943876e+02 -2.729110865243006856e+02 -2.730447529922066678e+02 -2.731752200381270654e+02 -2.732825142930454376e+02 -2.733132162734528947e+02 -2.731881407776788819e+02 -2.728561464707507866e+02 -2.723341345225892383e+02 -2.716880758997792782e+02 -2.709859449556072377e+02 -2.702671283219790439e+02 -2.695451781827820241e+02 -2.688237602693475310e+02 -2.681152417262763379e+02 -2.674910475397072673e+02 -2.671405762933057986e+02 -2.672479468701876613e+02 -2.677547328535742963e+02 -2.684430546097918864e+02 -2.691735238757062234e+02 -2.699093311296367119e+02 -2.706457961200907789e+02 -2.713824269008492820e+02 -2.721190882223667131e+02 -2.728557519054776890e+02 -2.735924054638304597e+02 -2.743286750459342898e+02 -2.750592236526937313e+02 -2.757507378916745893e+02 -2.763099347142414217e+02 -2.766401600540457935e+02 -2.767629593663322112e+02 -2.767864122619428144e+02 -2.767865172418294151e+02 -2.767815493743830757e+02 -2.767737301791070195e+02 -2.767653260883848816e+02 -2.767563491563810203e+02 -2.767463332083169121e+02 -2.767357136259762456e+02 -2.767249213653278730e+02 -2.767140143789323474e+02 -2.767030223161317508e+02 -2.766920136737722942e+02 -2.766814138324683086e+02 -2.766767787914718610e+02
-2.575545490868021261e+02 -2.586778108565014236e+02 -2.599182464717395078e+02 -2.610533988969112897e+02 -2.620332751975415704e+02 -2.629693303290805488e+02 -2.639838357044485520e+02 -2.650834630157841616e+02 -2.661755517727303300e+02 -2.672168426242990904e+02 -2.681575147942273816e+02 -2.688552649398045560e+02 -2.692460266610361259e+02 -2.694675172561054524e+02 -2.696504378587175665e+02 -2.698296785155828275e+02 -2.700087624709300371e+02 -2.701878442051184948e+02 -2.703669260049916261e+02 -2.705460104286983096e+02 -2.707251420074513817e+02 -2.709047144072726496e+02 -2.710865171553742243e+02 -2.712745884731345996e+02 -2.714725904702300454e+02 -2.716792980174956256e+02 -2.718888623967496869e+02 -2.720889196766420355e+02 -2.722504618613127150e+02 -2.723505206893833019e+02 -2.724088557049143446e+02 -2.724545287367336641e+02 -2.724983880184521468e+02 -2.725421102556848609e+02 -2.725858032709948588e+02 -2.726294814257952339e+02 -2.726731562469054211e+02 -2.727168307710818453e+02 -2.727605052841853990e+02 -2.728041797971857250e+02 -2.728478543045340530e+02 -2.728915254737711962e+02 -2.729350853544459596e+02 -2.729772093406645013e+02 -2.730117360481345941e+02 -2.730284035495546959e+02 -2.730253609775271570e+02 -2.730124354841138938e+02 -2.729974152411412547e+02 -2.729822130912770035e+02 -2.729670042814722137e+02 -2.729517953905871082e+02 -2.729365852886402877e+02 -2.729213446691558147e+02 -2.729056890089316312e+02 -2.728868511860749209e+02 -2.728548609802882083e+02 -2.727942363054087309e+02 -2.727000207169583632e+02 -2.725849996347982369e+02 -2.724716294577729059e+02 -2.723983580281093282e+02 -2.724017131921283976e+02 -2.724674652951364351e+02 -2.725571242661829388e+02 -2.726528244068521190e+02 -2.727572701957922163e+02 -2.728767510735650603e+02 -2.730074331578409215e+02 -2.731418715884610151e+02 -2.732764767841714502e+02 -2.734073825083265774e+02 -2.735185189644463435e+02 -2.735648157475473568e+02 -2.734741241246276786e+02 -2.731866521596370490e+02 -2.726989506843164577e+02 -2.720678448725454928e+02 -2.713678275791925216e+02 -2.706467688526714142e+02 -2.699218969974469360e+02 -2.691999298588243050e+02 -2.685092289602734468e+02 -2.679662081822498862e+02 -2.677866791017398782e+02 -2.680765757537976697e+02 -2.686802652346153764e+02 -2.693934908000152291e+02 -2.701269161753094750e+02 -2.708623462719897930e+02 -2.715979060339576563e+02 -2.723334746300872098e+02 -2.730690436474216085e+02 -2.738045727005698495e+02 -2.745388148778959021e+02 -2.752568289901316803e+02 -2.758914076577661945e+02 -2.763350606334145141e+02 -2.765604220290616695e+02 -2.766512289545438534e+02 -2.766956334941593241e+02 -2.767260670316812821e+02 -2.767451059110164806e+02 -2.767568511963145284e+02 -2.767647812912288146e+02 -2.767673779332765776e+02 -2.767641054248281307e+02 -2.767577158554587413e+02 -2.767499431334412066e+02 -2.767407188336276249e+02 -2.767304285628140974e+02 -2.767197476224145021e+02 -2.767089875249699844e+02 -2.766994941756100843e+02
-2.572242320549709120e+02 -2.583046080109005516e+02 -2.595753093554762927e+02 -2.607744428672137360e+02 -2.617956096260417667e+02 -2.627485131876834998e+02 -2.637710988304125976e+02 -2.648808883725960186e+02 -2.659857362568005783e+02 -2.670413998411286798e+02 -2.680227786047480549e+02 -2.687978945126890267e+02 -2.692536807519496165e+02 -2.695005054417661086e+02 -2.696879161568991776e+02 -2.698674903538462786e+02 -2.700465837749866296e+02 -2.702256655094504936e+02 -2.704047472468687374e+02 -2.705838292260797289e+02 -2.707629177164128578e+02 -2.709420972530891731e+02 -2.711219837822560521e+02 -2.713049855020620384e+02 -2.714957082879163863e+02 -2.716968125016189788e+02 -2.719047212354066687e+02 -2.721087666232850779e+02 -2.722828834992304792e+02 -2.723990821502177369e+02 -2.724661795346638087e+02 -2.725137353575340740e+02 -2.725577470838716181e+02 -2.726014694527303277e+02 -2.726451594008401571e+02 -2.726888367592388249e+02 -2.727325114906241197e+02 -2.727761860100920330e+02 -2.728198605231000329e+02 -2.728635350361004157e+02 -2.729072095489429444e+02 -2.729508825538331394e+02 -2.729944997412630414e+02 -2.730373116397451554e+02 -2.730749765657596981e+02 -2.730971746011747427e+02 -2.730980985473526630e+02 -2.730864313463194435e+02 -2.730715977322582830e+02 -2.730564080598343253e+02 -2.730411995768778297e+02 -2.730259907062167599e+02 -2.730107817762246896e+02 -2.729955697573986981e+02 -2.729802841221373342e+02 -2.729641075481553116e+02 -2.729424617280687926e+02 -2.729030178008388816e+02 -2.728318846946331178e+02 -2.727299124996681030e+02 -2.726168452777789639e+02 -2.725292567657404561e+02 -2.725092195839382612e+02 -2.725607112094575086e+02 -2.726471073596767383e+02 -2.727432399328616839e+02 -2.728497321086116472e+02 -2.729717864328595169e+02 -2.731038468426625627e+02 -2.732386076226323439e+02 -2.733736732756843821e+02 -2.735084046866285235e+02 -2.736401158410816379e+02 -2.737559467200666177e+02 -2.738187292905915911e+02 -2.737629548775938702e+02 -2.735201266765359946e+02 -2.730664812612793639e+02 -2.724509795733716260e+02 -2.717560177810257187e+02 -2.710363482334481660e+02 -2.703119858319620334e+02 -2.695954421479655139e+02 -2.689406919833132861e+02 -2.685135294067879386e+02 -2.685194943879826042e+02 -2.689577172800471772e+02 -2.696221484036191214e+02 -2.703480465290093662e+02 -2.710826981746712363e+02 -2.718179986919087696e+02 -2.725533232443706311e+02 -2.732886465773681834e+02 -2.740238387151518964e+02 -2.747557681224046178e+02 -2.754526496580210164e+02 -2.759981999399118422e+02 -2.762884584148031308e+02 -2.764060580896841657e+02 -2.764715250499867807e+02 -2.765274599809648635e+02 -2.765784281307742276e+02 -2.766225251349030714e+02 -2.766617138973700776e+02 -2.766963291301175332e+02 -2.767222942466991640e+02 -2.767385396549727830e+02 -2.767491724961876685e+02 -2.767553325050332660e+02 -2.767551221571164888e+02 -2.767501045648091349e+02 -2.767431113053336844e+02 -2.767348182807083390e+02 -2.767253290714957075e+02
-2.569118766591054168e+02 -2.579444683806448779e+02 -2.592131551614361342e+02 -2.604741351091323054e+02 -2.615517031931458405e+02 -2.625266749750295503e+02 -2.635576404831971900e+02 -2.646773073949196942e+02 -2.657951534485670209e+02 -2.668616393446098982e+02 -2.678673190917983220e+02 -2.687056181051011094e+02 -2.692399945532417860e+02 -2.695286957916353572e+02 -2.697249943058133113e+02 -2.699052896069264307e+02 -2.700844050552865383e+02 -2.702634868141217339e+02 -2.704425685480631500e+02 -2.706216502943414071e+02 -2.708007326056292641e+02 -2.709798277984616561e+02 -2.711590861476208261e+02 -2.713395067504991403e+02 -2.715243901486534241e+02 -2.717182542389745095e+02 -2.719215819196094230e+02 -2.721266221065812942e+02 -2.723113698930397959e+02 -2.724449339297758570e+02 -2.725227132710557498e+02 -2.725728357731406959e+02 -2.726170993882225275e+02 -2.726608282222365460e+02 -2.727045153707992995e+02 -2.727481920571039495e+02 -2.727918667314252730e+02 -2.728355412490143408e+02 -2.728792157620149510e+02 -2.729228902750152201e+02 -2.729665647880156598e+02 -2.730102388400246127e+02 -2.730538915377011335e+02 -2.730971553073914606e+02 -2.731370852788941761e+02 -2.731640960581390800e+02 -2.731697177449107130e+02 -2.731601778267298641e+02 -2.731457597301648548e+02 -2.731306024070950116e+02 -2.731153948721583902e+02 -2.731001860021918901e+02 -2.730849771309207199e+02 -2.730697679886006881e+02 -2.730545481839515105e+02 -2.730391426157384558e+02 -2.730220638361688543e+02 -2.729967475000885315e+02 -2.729489007186065237e+02 -2.728673191316692623e+02 -2.727611904375222593e+02 -2.726630582067205637e+02 -2.726205908262273283e+02 -2.726560139648476024e+02 -2.727376702132105493e+02 -2.728343579794827178e+02 -2.729432962978447677e+02 -2.730674897120291007e+02 -2.732004084068877319e+02 -2.733353256571025440e+02 -2.734704282860441253e+02 -2.736055190444301388e+02 -2.737403377277097434e+02 -2.738728705390845448e+02 -2.739934287610004731e+02 -2.740726464096297832e+02 -2.740509081845767696e+02 -2.738493524942671229e+02 -2.734270294213371244e+02 -2.728303240548134454e+02 -2.721442816488044514e+02 -2.714270440726623406e+02 -2.707039735061456440e+02 -2.699994596574359775e+02 -2.694047914125481498e+02 -2.691261295368177571e+02 -2.693181490602012218e+02 -2.698719382958794313e+02 -2.705721723011263293e+02 -2.713037631236894640e+02 -2.720388649880535468e+02 -2.727741659693879228e+02 -2.735094723444031501e+02 -2.742443861234756923e+02 -2.749717544800105316e+02 -2.756367543574518777e+02 -2.760772965295752783e+02 -2.762092844725740406e+02 -2.762214630293520941e+02 -2.762566585586956762e+02 -2.763120880908055597e+02 -2.763704734226804476e+02 -2.764276085943669159e+02 -2.764834061476875604e+02 -2.765368272027560579e+02 -2.765850399403126403e+02 -2.766272963218239056e+02 -2.766653716184829364e+02 -2.766971193887054596e+02 -2.767184371524779181e+02 -2.767316794165988085e+02 -2.767406822995696984e+02 -2.767445675497355069e+02 -2.767420956940956103e+02
-2.566145406994723430e+02 -2.575945085143055735e+02 -2.588311695725471395e+02 -2.601491239461977898e+02 -2.612970769868045977e+02 -2.623019809885967106e+02 -2.633436387146013544e+02 -2.644735342837982444e+02 -2.656043595205736096e+02 -2.666795369700409992e+02 -2.676998227051012691e+02 -2.685922040537233215e+02 -2.692126177585219011e+02 -2.695534038124483800e+02 -2.697616941866521074e+02 -2.699430698808316151e+02 -2.701222259749896466e+02 -2.703013081187929174e+02 -2.704803898526421335e+02 -2.706594715867564105e+02 -2.708385533518331840e+02 -2.710176365406484820e+02 -2.711967502476344976e+02 -2.713762013721881203e+02 -2.715575586451551544e+02 -2.717446558430925734e+02 -2.719412398992902808e+02 -2.721445773055608015e+02 -2.723377014209388562e+02 -2.724878196946527282e+02 -2.725776247899282225e+02 -2.726315891839607843e+02 -2.726764235827440643e+02 -2.727201860879076776e+02 -2.727638713178620264e+02 -2.728075473512470808e+02 -2.728512219719627865e+02 -2.728948964879292589e+02 -2.729385710009296417e+02 -2.729822455139300246e+02 -2.730259200269303506e+02 -2.730695944652533740e+02 -2.731132615512306074e+02 -2.731567340057914066e+02 -2.731980061994795506e+02 -2.732290547751372856e+02 -2.732401385250232124e+02 -2.732336520214238362e+02 -2.732198982863013725e+02 -2.732047959568870965e+02 -2.731895901631590391e+02 -2.731743812975975061e+02 -2.731591724275060074e+02 -2.731439635415129601e+02 -2.731287536594162475e+02 -2.731135176159399407e+02 -2.730979171391647924e+02 -2.730794841844560779e+02 -2.730490255739156282e+02 -2.729911390331682242e+02 -2.729006807082445221e+02 -2.728000732994859163e+02 -2.727392159758135222e+02 -2.727557880032687763e+02 -2.728293307831290235e+02 -2.729260115029721874e+02 -2.730376106100653715e+02 -2.731636464349462585e+02 -2.732970711195205809e+02 -2.734320509050612600e+02 -2.735671579108766309e+02 -2.737022683509109129e+02 -2.738373646268332777e+02 -2.739722697589749032e+02 -2.741056206346946738e+02 -2.742307783394276157e+02 -2.743249492068727022e+02 -2.743316303502725759e+02 -2.741670887956177580e+02 -2.737831681924436111e+02 -2.732131965138401029e+02 -2.725354709887033096e+02 -2.718182344325210806e+02 -2.710973079227684934e+02 -2.704170662638981639e+02 -2.699192784132160341e+02 -2.698199644303051628e+02 -2.701751883599582698e+02 -2.708061997375794476e+02 -2.715257278792939246e+02 -2.722598258584444579e+02 -2.729951393715203949e+02 -2.737308692545228155e+02 -2.744665904660430442e+02 -2.751865876670897251e+02 -2.758051383868103130e+02 -2.761361184560072388e+02 -2.761316854206156677e+02 -2.760441808647852895e+02 -2.760388105301037740e+02 -2.760864409275910702e+02 -2.761453813406134259e+02 -2.762052406592364378e+02 -2.762649776501609722e+02 -2.763242176586359733e+02 -2.763822976874615165e+02 -2.764390106837812482e+02 -2.764943195304366554e+02 -2.765460237393316447e+02 -2.765914031786613805e+02 -2.766316342503388341e+02 -2.766676750601347976e+02 -2.766957247208366653e+02 -2.767132441449233511e+02
-2.563229035319414493e+02 -2.572472532234029359e+02 -2.584306585506451484e+02 -2.597905450767206048e+02 -2.610197181696330517e+02 -2.620701585678179981e+02 -2.631285052308622312e+02 -2.642694319730933330e+02 -2.654131627200669072e+02 -2.664968170839773620e+02 -2.675291199185704727e+02 -2.684702253954944808e+02 -2.691752525751490452e+02 -2.695730355370352527e+02 -2.697973438442999168e+02 -2.699807664556956297e+02 -2.701600444115292703e+02 -2.703391294234642146e+02 -2.705182111573133170e+02 -2.706972928911625331e+02 -2.708763746260532344e+02 -2.710554564916736240e+02 -2.712345427842248000e+02 -2.714136991568489634e+02 -2.715934381671121400e+02 -2.717758821953802908e+02 -2.719653697462793502e+02 -2.721640103442553027e+02 -2.723611669134858175e+02 -2.725251334151000151e+02 -2.726291243272292490e+02 -2.726895803382782333e+02 -2.727356846453919843e+02 -2.727795417713734878e+02 -2.728232272020360369e+02 -2.728669026402192230e+02 -2.729105772123395468e+02 -2.729542517268440633e+02 -2.729979262398444462e+02 -2.730416007528448290e+02 -2.730852752658451550e+02 -2.731289497734848055e+02 -2.731726210121586291e+02 -2.732161829940200164e+02 -2.732583317509642598e+02 -2.732929689336779120e+02 -2.733098219436649856e+02 -2.733068987277771384e+02 -2.732940041206138062e+02 -2.732789873653991890e+02 -2.732637853990710823e+02 -2.732485765930031221e+02 -2.732333677229116802e+02 -2.732181588523940263e+02 -2.732029499318990702e+02 -2.731877384452888009e+02 -2.731724659138453148e+02 -2.731564407584370429e+02 -2.731355659934738469e+02 -2.730980056507121390e+02 -2.730300340186578865e+02 -2.729381987783782506e+02 -2.728654168116073038e+02 -2.728605691970379326e+02 -2.729221820923096402e+02 -2.730179009867002833e+02 -2.731321454727588502e+02 -2.732599340488815756e+02 -2.733937629767743829e+02 -2.735287785307916693e+02 -2.736638868389797494e+02 -2.737989978693032072e+02 -2.739341085088310592e+02 -2.740692102092362461e+02 -2.742041993700031526e+02 -2.743382902538412509e+02 -2.744671506221621939e+02 -2.745730733456549615e+02 -2.746085403909676756e+02 -2.744971029998558265e+02 -2.741655473415735287e+02 -2.736106121247908050e+02 -2.729284706009560750e+02 -2.722091096600305491e+02 -2.714957652881888635e+02 -2.708635694468542852e+02 -2.704953628403205812e+02 -2.705773160829002109e+02 -2.710680035799608731e+02 -2.717517371166483713e+02 -2.724814465690609495e+02 -2.732178837508092784e+02 -2.739607457203801459e+02 -2.747145159793047924e+02 -2.754365703425831953e+02 -2.759857229169251696e+02 -2.761902610624220529e+02 -2.760667157970245853e+02 -2.758860363899580079e+02 -2.758288570185195567e+02 -2.758612909193195719e+02 -2.759181390923158688e+02 -2.759780789629726314e+02 -2.760381947598712600e+02 -2.760982751777849558e+02 -2.761582602267304765e+02 -2.762181245571981663e+02 -2.762777684833951639e+02 -2.763366270058472765e+02 -2.763940653396363132e+02 -2.764502027953205925e+02 -2.765044233413640313e+02 -2.765538957195792591e+02 -2.765969411760718231e+02
-2.560351699220390174e+02 -2.569096110142738212e+02 -2.580255809242745499e+02 -2.593964003471635920e+02 -2.607113911077278203e+02 -2.618285908813359129e+02 -2.629117552768112205e+02 -2.640640092549739393e+02 -2.652199350323821818e+02 -2.663127054167030110e+02 -2.673552045778666297e+02 -2.683341372671313820e+02 -2.691142801499000257e+02 -2.695782772119139281e+02 -2.698297761195240128e+02 -2.700181984998303051e+02 -2.701978548345479680e+02 -2.703769507270502004e+02 -2.705560324619846142e+02 -2.707351141958337166e+02 -2.709141959297011226e+02 -2.710932776710724283e+02 -2.712723598083757679e+02 -2.714514514743800646e+02 -2.716306690200364073e+02 -2.718108340112609085e+02 -2.719948676843551993e+02 -2.721868510725664692e+02 -2.723828090577172816e+02 -2.725569230860537573e+02 -2.726770458630346070e+02 -2.727467429107328485e+02 -2.727948713765423463e+02 -2.728388940319245535e+02 -2.728825828849525692e+02 -2.729262579142434788e+02 -2.729699324522649704e+02 -2.730136069657588678e+02 -2.730572814787591938e+02 -2.731009559917595197e+02 -2.731446305047599026e+02 -2.731883050176109009e+02 -2.732319780674129674e+02 -2.732755967553788423e+02 -2.733184273090625993e+02 -2.733561806889789523e+02 -2.733785464528878606e+02 -2.733796082642669489e+02 -2.733679937438298566e+02 -2.733531693448746864e+02 -2.733379803521867188e+02 -2.733227718884087381e+02 -2.733075630183172962e+02 -2.732923541482257406e+02 -2.732771452770979295e+02 -2.732619362021248435e+02 -2.732467187875612353e+02 -2.732313480049527925e+02 -2.732145102507628280e+02 -2.731901396097413226e+02 -2.731448178336560204e+02 -2.730708357022024302e+02 -2.729940887211425888e+02 -2.729685537555460542e+02 -2.730162251138966667e+02 -2.731100351680489666e+02 -2.732267468736172304e+02 -2.733562448672748815e+02 -2.734904591426593470e+02 -2.736255064863192956e+02 -2.737606157665618412e+02 -2.738957268046950730e+02 -2.740308378384814887e+02 -2.741659486667512056e+02 -2.743010552516115013e+02 -2.744361108980794484e+02 -2.745707594633949498e+02 -2.747032581783046226e+02 -2.748287789825333789e+02 -2.749254839499646437e+02 -2.748897300286760128e+02 -2.745772260515451535e+02 -2.740089905729253701e+02 -2.733197458497156731e+02 -2.726003002786584943e+02 -2.719033830053153338e+02 -2.713425099760548278e+02 -2.711337781133299814e+02 -2.714003481748405306e+02 -2.719958032814696480e+02 -2.727152140381297727e+02 -2.734711568213933788e+02 -2.742673941329304625e+02 -2.751121901385315596e+02 -2.758553975942614898e+02 -2.762597089107017041e+02 -2.762703928593979299e+02 -2.760224248609389406e+02 -2.757559379777798085e+02 -2.756347230482219857e+02 -2.756396174496468348e+02 -2.756910703129668718e+02 -2.757505713161974654e+02 -2.758106882160502664e+02 -2.758708236830096325e+02 -2.759309563675350319e+02 -2.759910847082024929e+02 -2.760511977624347537e+02 -2.761112468633794492e+02 -2.761711771006415574e+02 -2.762309666864188102e+02 -2.762903810408710115e+02 -2.763487544927546082e+02 -2.764057634413134679e+02
-2.557536603079925328e+02 -2.565945804964782724e+02 -2.576439492645296241e+02 -2.589906211357978805e+02 -2.603792612364494516e+02 -2.615769186301359923e+02 -2.626927111798225951e+02 -2.638559293455094803e+02 -2.650225284449328456e+02 -2.661257864519040481e+02 -2.671766048603458330e+02 -2.681783707599672653e+02 -2.690202093697776036e+02 -2.695632200991424270e+02 -2.698576223770239153e+02 -2.700552438270678977e+02 -2.702356527605014094e+02 -2.704147719918133816e+02 -2.705938537666557409e+02 -2.707729355005049570e+02 -2.709520172343541162e+02 -2.711310989683942694e+02 -2.713101807212103722e+02 -2.714892633988688431e+02 -2.716683676122062252e+02 -2.718477301576676837e+02 -2.720286720372770333e+02 -2.722145293556031902e+02 -2.724060123442237682e+02 -2.725866158205486727e+02 -2.727227541549677881e+02 -2.728031112636024886e+02 -2.728539298123627646e+02 -2.728982363926402854e+02 -2.729419380874624039e+02 -2.729856131683730496e+02 -2.730292876915896159e+02 -2.730729622046735585e+02 -2.731166367176738277e+02 -2.731603112306742105e+02 -2.732039857436745933e+02 -2.732476602566749762e+02 -2.732913343278624438e+02 -2.733349877052750116e+02 -2.733782606900714427e+02 -2.734182433421702854e+02 -2.734453919866163005e+02 -2.734511814018817404e+02 -2.734417299376027017e+02 -2.734273304962393922e+02 -2.734121746737055219e+02 -2.733969671836807720e+02 -2.733817583137227984e+02 -2.733665494436312997e+02 -2.733513405735398010e+02 -2.733361316924386983e+02 -2.733209220301921505e+02 -2.733056905627238393e+02 -2.732901452700667733e+02 -2.732721214189036800e+02 -2.732433570996134904e+02 -2.731906496903308721e+02 -2.731201950577270736e+02 -2.730804269437207950e+02 -2.731133060948922093e+02 -2.732030916678546646e+02 -2.733215642087471906e+02 -2.734525904597427370e+02 -2.735871407630214094e+02 -2.737222000976786376e+02 -2.738573144345518813e+02 -2.739924421047644501e+02 -2.741275633922515453e+02 -2.742626773581539510e+02 -2.743977887516607552e+02 -2.745328987807483827e+02 -2.746680341887603163e+02 -2.748041550190455382e+02 -2.749515053078383744e+02 -2.751380675723472677e+02 -2.753240174619492109e+02 -2.753203182713021420e+02 -2.749902067672545058e+02 -2.744052266115738234e+02 -2.737099571112651120e+02 -2.729936675770071588e+02 -2.723291158208330671e+02 -2.718813250424585704e+02 -2.718644267191248787e+02 -2.723116564880363057e+02 -2.730772437357411491e+02 -2.739959607338515752e+02 -2.749721853663065190e+02 -2.759260913370625303e+02 -2.765314218317337236e+02 -2.766142448505269158e+02 -2.763648760033038343e+02 -2.759967768930878265e+02 -2.756573270222645533e+02 -2.754620281809772564e+02 -2.754242498868530902e+02 -2.754648617608445988e+02 -2.755231081339805996e+02 -2.755831563756580067e+02 -2.756432917461376633e+02 -2.757034287499676566e+02 -2.757635657222125474e+02 -2.758237022823489042e+02 -2.758838369277799529e+02 -2.759439681154777873e+02 -2.760040973472625865e+02 -2.760642438392669078e+02 -2.761245651609602874e+02 -2.761860415337191625e+02
-2.554773203057864066e+02 -2.562967439817758759e+02 -2.572832412409996437e+02 -2.585751920594070157e+02 -2.600142402956005867e+02 -2.613049986369431394e+02 -2.624685858604926807e+02 -2.636450973236130153e+02 -2.648212368087039295e+02 -2.659363562750233996e+02 -2.669951361209369907e+02 -2.680113857311314405e+02 -2.689067814798692098e+02 -2.695353459343122609e+02 -2.698819926047685840e+02 -2.700918668861298784e+02 -2.702734259972401105e+02 -2.704525919308151174e+02 -2.706316742789980481e+02 -2.708107560128486853e+02 -2.709898377466993225e+02 -2.711689194805500165e+02 -2.713480012147644516e+02 -2.715270830262035133e+02 -2.717061678603254222e+02 -2.718853054118532668e+02 -2.720649157668810858e+02 -2.722467448945063779e+02 -2.724330937340025685e+02 -2.726161876831635027e+02 -2.727654531194157244e+02 -2.728574685596531708e+02 -2.729125340065538694e+02 -2.729575401706046591e+02 -2.730012912163600163e+02 -2.730449675942546151e+02 -2.730886421133970998e+02 -2.731323166264050997e+02 -2.731759911394070741e+02 -2.732196656524089349e+02 -2.732633401654107956e+02 -2.733070146784126564e+02 -2.733506891204741578e+02 -2.733943563899890705e+02 -2.734378323323175550e+02 -2.734791354125306952e+02 -2.735103033476622159e+02 -2.735215726210525418e+02 -2.735151966173232267e+02 -2.735014676678638352e+02 -2.734863674429702769e+02 -2.734711617189538515e+02 -2.734559528536934181e+02 -2.734407439836032836e+02 -2.734255351135132059e+02 -2.734103262431403891e+02 -2.733951173321440251e+02 -2.733799063777508991e+02 -2.733646469501265983e+02 -2.733487742646690322e+02 -2.733287266743039936e+02 -2.732941738554401354e+02 -2.732396604101273851e+02 -2.731969760142609402e+02 -2.732154725150563763e+02 -2.732980759483631346e+02 -2.734169473392970531e+02 -2.735489199028490930e+02 -2.736832267788869331e+02 -2.738177036744745010e+02 -2.739529244752413319e+02 -2.740885962867797616e+02 -2.742240667453821743e+02 -2.743592956612783382e+02 -2.744944415849558936e+02 -2.746295750377216791e+02 -2.747647355692232054e+02 -2.749007762228383172e+02 -2.750477687263868916e+02 -2.752464022207299195e+02 -2.755279153320583418e+02 -2.757773901744542400e+02 -2.757666209268575699e+02 -2.754046045420856785e+02 -2.748004859752267066e+02 -2.741003413348295226e+02 -2.733954392019697366e+02 -2.727948375366480036e+02 -2.725292806500399934e+02 -2.728921750643590940e+02 -2.740119919937476425e+02 -2.754994819000287407e+02 -2.766827676506144371e+02 -2.773016986002526210e+02 -2.772696385632655165e+02 -2.768675846255699184e+02 -2.764102537694188868e+02 -2.759732377325648827e+02 -2.755839859735559685e+02 -2.753167001815029380e+02 -2.752221582747030197e+02 -2.752414023597522146e+02 -2.752958776210969631e+02 -2.753556324349727333e+02 -2.754157581932277594e+02 -2.754758951352528129e+02 -2.755360321449476828e+02 -2.755961692652209649e+02 -2.756563080747426966e+02 -2.757164622664391800e+02 -2.757767399944535782e+02 -2.758377799192335260e+02 -2.759018044730498787e+02 -2.759745875401652597e+02
-2.552039247879947936e+02 -2.560050178748574581e+02 -2.569284699562317655e+02 -2.581410199659018758e+02 -2.596037085970761495e+02 -2.610014010869549566e+02 -2.622356539926677783e+02 -2.634321636256091210e+02 -2.646181303531865296e+02 -2.657457964079611656e+02 -2.668128446506757427e+02 -2.678410807700683449e+02 -2.687843276872555407e+02 -2.694960785211975463e+02 -2.699002182954994282e+02 -2.701271587899169617e+02 -2.703110633768997104e+02 -2.704903776650334066e+02 -2.706694637167357769e+02 -2.708485454506353562e+02 -2.710276271845348788e+02 -2.712067089184344013e+02 -2.713857906523339238e+02 -2.715648723906425630e+02 -2.717439544076553943e+02 -2.719230436838086007e+02 -2.721022317895112792e+02 -2.722821404413259074e+02 -2.724644412574782564e+02 -2.726462034732500115e+02 -2.728037338120814184e+02 -2.729084157820190057e+02 -2.729703033963355097e+02 -2.730167439969849852e+02 -2.730606101477046650e+02 -2.731042899656206373e+02 -2.731479644855087372e+02 -2.731916389985612454e+02 -2.732353135116135263e+02 -2.732789880246658072e+02 -2.733226625377181449e+02 -2.733663370507704258e+02 -2.734100115587533537e+02 -2.734536828669157558e+02 -2.734972469503562706e+02 -2.735394204893543701e+02 -2.735741682847340144e+02 -2.735912074189920986e+02 -2.735884045743337083e+02 -2.735755414691217311e+02 -2.735605283390840441e+02 -2.735453265676161436e+02 -2.735301177656736513e+02 -2.735149088956301853e+02 -2.734997000255867192e+02 -2.734844911555432532e+02 -2.734692822846068339e+02 -2.734540732770285558e+02 -2.734388582525986067e+02 -2.734235223914082553e+02 -2.734069449626024948e+02 -2.733840748465055412e+02 -2.733478043550517214e+02 -2.733120062236414469e+02 -2.733201878611615712e+02 -2.733948142340440199e+02 -2.735129036604218982e+02 -2.736437521242714865e+02 -2.737715453071521097e+02 -2.738976631719258421e+02 -2.740334750794426100e+02 -2.741756187285662918e+02 -2.743155374640547279e+02 -2.744525403955308320e+02 -2.745885357278449419e+02 -2.747243900183843266e+02 -2.748602907777124074e+02 -2.749966007051477845e+02 -2.751394494191951026e+02 -2.753229865038435946e+02 -2.756139029167277386e+02 -2.759955404792374338e+02 -2.762684540953595160e+02 -2.762199489728108119e+02 -2.758185717444424654e+02 -2.751962208914349048e+02 -2.745017826574281798e+02 -2.738644284172044081e+02 -2.735558328875245024e+02 -2.741409130312893581e+02 -2.759337593345816799e+02 -2.780206421844172837e+02 -2.790471198364991778e+02 -2.787727667602674160e+02 -2.778195368797093465e+02 -2.769739317909928786e+02 -2.764069872288482657e+02 -2.759478187740365911e+02 -2.755324976257940079e+02 -2.752059870890825550e+02 -2.750418244829504602e+02 -2.750236336966352155e+02 -2.750693124361577588e+02 -2.751281450272158509e+02 -2.751882254323629695e+02 -2.752483615541523818e+02 -2.753084991825211318e+02 -2.753686435986122660e+02 -2.754288462392462407e+02 -2.754893767157630577e+02 -2.755514332070255819e+02 -2.756196319499607625e+02 -2.757043689159274322e+02 -2.758203022281679750e+02
-2.549371805254297101e+02 -2.557222619853172887e+02 -2.565928503143888975e+02 -2.577223913744600168e+02 -2.591794976484852668e+02 -2.606737239706171749e+02 -2.619908518680471161e+02 -2.632156903412580391e+02 -2.644131761583939237e+02 -2.655537219595619263e+02 -2.666290268374099242e+02 -2.676662880897465584e+02 -2.686456535865432897e+02 -2.694308062904259486e+02 -2.699025302220214826e+02 -2.701585290513702375e+02 -2.703479382897743335e+02 -2.705276750428720902e+02 -2.707067733499527549e+02 -2.708858550852948497e+02 -2.710649368197898639e+02 -2.712440185542849349e+02 -2.714231002887800628e+02 -2.716021820233920607e+02 -2.717812637719470104e+02 -2.719603461752702174e+02 -2.721394434880775748e+02 -2.723187112980697293e+02 -2.724987847021187690e+02 -2.726780582318424422e+02 -2.728400537968209392e+02 -2.729569390496881169e+02 -2.730270241579970616e+02 -2.730753934551518114e+02 -2.731194312891400386e+02 -2.731631174138688039e+02 -2.732067919953116188e+02 -2.732504665094896836e+02 -2.732941410231562145e+02 -2.733378155368227453e+02 -2.733814900504893330e+02 -2.734251645641558639e+02 -2.734688390776816505e+02 -2.735125121730617366e+02 -2.735561323679032171e+02 -2.735989817653328373e+02 -2.736368258886795957e+02 -2.736593696402046589e+02 -2.736605862329633965e+02 -2.736490346571461032e+02 -2.736342217661758696e+02 -2.736190336424882048e+02 -2.736038252042414456e+02 -2.735886163347677211e+02 -2.735734074652920071e+02 -2.735581985958164637e+02 -2.735429897263408066e+02 -2.735277808507474901e+02 -2.735125714089670055e+02 -2.734973445153158877e+02 -2.734818619813112832e+02 -2.734645221340599619e+02 -2.734412562695001725e+02 -2.734159513607493750e+02 -2.734215278589655895e+02 -2.734916171766280968e+02 -2.736081058105235115e+02 -2.737294078597097950e+02 -2.738192148837292734e+02 -2.738951529636643727e+02 -2.740249435619134601e+02 -2.741938634895471978e+02 -2.743559001794608889e+02 -2.745053441601681925e+02 -2.746503570314300759e+02 -2.747948993689038844e+02 -2.749400716931249917e+02 -2.750849229795909423e+02 -2.752295393815627449e+02 -2.753978291921598611e+02 -2.756652902848771873e+02 -2.760784589759524579e+02 -2.765189675281377504e+02 -2.767710477084034437e+02 -2.766735519853983760e+02 -2.762411347117434843e+02 -2.756593592414545810e+02 -2.751871936169101218e+02 -2.752039499095124029e+02 -2.762550085586657360e+02 -2.782801744214588098e+02 -2.800717474153832427e+02 -2.805745390607547733e+02 -2.796676158473777605e+02 -2.781332807594075121e+02 -2.770137287396182160e+02 -2.763896636998440499e+02 -2.759234916438381333e+02 -2.754954428777924704e+02 -2.751235986851252164e+02 -2.748861453493471458e+02 -2.748159483301595856e+02 -2.748446100530253489e+02 -2.749008014831318860e+02 -2.749606972124621507e+02 -2.750208308689954038e+02 -2.750809953189323096e+02 -2.751413237732721200e+02 -2.752025509148632523e+02 -2.752672738057274273e+02 -2.753419160006635593e+02 -2.754415834313102778e+02 -2.755868685330412404e+02 -2.757881096899509998e+02
-2.547053147785520650e+02 -2.554782241239061591e+02 -2.563186897446993271e+02 -2.573852643667980260e+02 -2.588087064774817350e+02 -2.603536741007301316e+02 -2.617359730287138291e+02 -2.629886168550980301e+02 -2.641981865681528916e+02 -2.653520372100349505e+02 -2.664360062089987764e+02 -2.674789401969811706e+02 -2.684801056221093063e+02 -2.693274840508664738e+02 -2.698809557804386259e+02 -2.701819436680423792e+02 -2.703810471113880567e+02 -2.705615765545719569e+02 -2.707406992947453546e+02 -2.709197810660147070e+02 -2.710988628031788039e+02 -2.712779445403428440e+02 -2.714570262775069978e+02 -2.716361080146710947e+02 -2.718151897521249793e+02 -2.719942715320812567e+02 -2.721733551258272428e+02 -2.723524675088889921e+02 -2.725317025534225763e+02 -2.727096320310047304e+02 -2.728748378652892370e+02 -2.730018525420467768e+02 -2.730797244654725091e+02 -2.731303887252602181e+02 -2.731747436139544334e+02 -2.732184539504636973e+02 -2.732621295982816036e+02 -2.733058041408463623e+02 -2.733494786575141688e+02 -2.733931531739335128e+02 -2.734368276903529704e+02 -2.734805022067723712e+02 -2.735241767231917720e+02 -2.735678508169768861e+02 -2.736115049235859260e+02 -2.736547886518421819e+02 -2.736948425706474382e+02 -2.737222124287170573e+02 -2.737283072716255674e+02 -2.737190282479733696e+02 -2.737046664873393524e+02 -2.736895137931219324e+02 -2.736743064054144270e+02 -2.736590975388734819e+02 -2.736438886719427614e+02 -2.736286798050119842e+02 -2.736134709380813206e+02 -2.735982620710112769e+02 -2.735830531726714980e+02 -2.735678427465725235e+02 -2.735525987345592398e+02 -2.735369863600874396e+02 -2.735196473259732102e+02 -2.735030686147424603e+02 -2.735137322151293802e+02 -2.735847707071377499e+02 -2.736968354504675176e+02 -2.737842885668244435e+02 -2.737652008381012365e+02 -2.736989744321256239e+02 -2.737777671323596564e+02 -2.739764479068990113e+02 -2.741818622436163650e+02 -2.743707153696120713e+02 -2.745533749883712744e+02 -2.747364893611966750e+02 -2.749245687362097783e+02 -2.751172443129532894e+02 -2.752998589690600966e+02 -2.754750904003980168e+02 -2.757171539156113340e+02 -2.761081802685083062e+02 -2.766046301654934041e+02 -2.770540735975243365e+02 -2.772717687248320999e+02 -2.771593194598657419e+02 -2.768915365470157894e+02 -2.768369059865844974e+02 -2.773256050229643961e+02 -2.785101534807726580e+02 -2.799604606414104069e+02 -2.809594575446183171e+02 -2.811025873027012949e+02 -2.800806830320931340e+02 -2.783281646535975824e+02 -2.770394866364679842e+02 -2.763714381564495852e+02 -2.759001433511109553e+02 -2.754654692719840909e+02 -2.750629322932716718e+02 -2.747604065823019823e+02 -2.746254660637611096e+02 -2.746238818917958042e+02 -2.746738369933734702e+02 -2.747331951212730701e+02 -2.747933902917840214e+02 -2.748540696204706819e+02 -2.749167121576764998e+02 -2.749862445302052265e+02 -2.750739105852674129e+02 -2.751951667069482141e+02 -2.753682276611386897e+02 -2.756047928876586752e+02 -2.758922735075909713e+02
-2.545804983721295116e+02 -2.553437257198802968e+02 -2.561741194904021768e+02 -2.572142092241596174e+02 -2.586068903679938558e+02 -2.601357313743980058e+02 -2.615005244285648018e+02 -2.627392239861894723e+02 -2.639508702169123353e+02 -2.651177609532194879e+02 -2.662129876218983782e+02 -2.672616590033478587e+02 -2.682780549008667776e+02 -2.691844470666753750e+02 -2.698320022804728069e+02 -2.701902025368827935e+02 -2.704025973262860134e+02 -2.705843482021246587e+02 -2.707635186679455046e+02 -2.709426009630578278e+02 -2.711216827046223443e+02 -2.713007644461870314e+02 -2.714798461877516615e+02 -2.716589279293162349e+02 -2.718380096708808651e+02 -2.720170914143270693e+02 -2.721961733251802116e+02 -2.723752565410134707e+02 -2.725542750302992658e+02 -2.727318614418360880e+02 -2.728990156829842135e+02 -2.730327775806086379e+02 -2.731183031829497168e+02 -2.731730124401391322e+02 -2.732184562262282270e+02 -2.732623237446330222e+02 -2.733060118594573851e+02 -2.733496869246745291e+02 -2.733933614548239461e+02 -2.734370359757820665e+02 -2.734807104967401301e+02 -2.735243850176982505e+02 -2.735680595386563709e+02 -2.736117339924109046e+02 -2.736554016489999981e+02 -2.736988875709325839e+02 -2.737403006841484512e+02 -2.737719444722009712e+02 -2.737839951396537117e+02 -2.737781044358909526e+02 -2.737644920245198819e+02 -2.737494032536564532e+02 -2.737341980374915238e+02 -2.737189891869884377e+02 -2.737037803242535574e+02 -2.736885714615187908e+02 -2.736733625987839105e+02 -2.736581537360490870e+02 -2.736429448725647262e+02 -2.736277359380085841e+02 -2.736125236963962948e+02 -2.735972600685141742e+02 -2.735818982978573217e+02 -2.735709377105654312e+02 -2.735891065595978944e+02 -2.736643432786231642e+02 -2.737640566690803325e+02 -2.737707651880560888e+02 -2.735675074993901035e+02 -2.733028120458956209e+02 -2.732709945424896887e+02 -2.734413134225856084e+02 -2.736660260788375467e+02 -2.738981375347512426e+02 -2.741341272733149026e+02 -2.743775334353408653e+02 -2.746424990906508583e+02 -2.749568596030701997e+02 -2.752829894385121747e+02 -2.755327169838420787e+02 -2.757655512116620002e+02 -2.761154155625098383e+02 -2.766049132827407675e+02 -2.771339527754385017e+02 -2.775582205130532429e+02 -2.777729143120252502e+02 -2.779197678575263808e+02 -2.782799735436980200e+02 -2.789195106251322613e+02 -2.797579580769590848e+02 -2.805409522405163329e+02 -2.810843692706896491e+02 -2.811865212335857223e+02 -2.802737889921385204e+02 -2.784737478491983893e+02 -2.770724233703836035e+02 -2.763570862496865175e+02 -2.758775653787376996e+02 -2.754395823249976161e+02 -2.750197123990154751e+02 -2.746647570912273295e+02 -2.744565306109789162e+02 -2.744100597602653693e+02 -2.744479512930155920e+02 -2.745060273579962313e+02 -2.745673507180407569e+02 -2.746330742670930363e+02 -2.747107374568474256e+02 -2.748152432767757318e+02 -2.749665142898116414e+02 -2.751750943573229051e+02 -2.754389558891787146e+02 -2.757469750937669914e+02 -2.760788483261099486e+02
-2.546049166689467427e+02 -2.553608332549080160e+02 -2.561959029748229568e+02 -2.572520685091382120e+02 -2.586404868356675024e+02 -2.600845070060819353e+02 -2.613147624834493286e+02 -2.624671454639749868e+02 -2.636580682980624601e+02 -2.648351739603746182e+02 -2.659461913499264369e+02 -2.670040235652121510e+02 -2.680350412048436510e+02 -2.690001652452452277e+02 -2.697484448878889225e+02 -2.701748611912806837e+02 -2.704068281574649291e+02 -2.705911573583989593e+02 -2.707704854596356654e+02 -2.709495715684676611e+02 -2.711286533127013172e+02 -2.713077350569349733e+02 -2.714868168011686294e+02 -2.716658985454022854e+02 -2.718449802896358278e+02 -2.720240620339124007e+02 -2.722031437870093669e+02 -2.723822220644588583e+02 -2.725611696867769638e+02 -2.727382907866803521e+02 -2.729045646893862340e+02 -2.730404588569479074e+02 -2.731338807672533449e+02 -2.731963212173262718e+02 -2.732451370215089810e+02 -2.732897630633607378e+02 -2.733335419233206380e+02 -2.733772224975323297e+02 -2.734208971777986790e+02 -2.734645717022144140e+02 -2.735082462259254044e+02 -2.735519207496363379e+02 -2.735955952733473282e+02 -2.736392697922802881e+02 -2.736829416187340485e+02 -2.737265224109122528e+02 -2.737689003545159494e+02 -2.738045855391259806e+02 -2.738232716204543067e+02 -2.738216362741254670e+02 -2.738091360298491281e+02 -2.737941755346870991e+02 -2.737789772370965693e+02 -2.737637685345741829e+02 -2.737485596743841825e+02 -2.737333508141943526e+02 -2.737181419540044089e+02 -2.737029330938144653e+02 -2.736877242336245217e+02 -2.736725153720749404e+02 -2.736573062660233973e+02 -2.736421051809203391e+02 -2.736273334481813890e+02 -2.736186380080881122e+02 -2.736404752721124964e+02 -2.737196005182066756e+02 -2.738040208157938764e+02 -2.737047518045757784e+02 -2.733098991906211950e+02 -2.728953290496933732e+02 -2.727603854273930892e+02 -2.728452013872745283e+02 -2.730146031895804981e+02 -2.732192003658450403e+02 -2.734501180186198326e+02 -2.737085030190381758e+02 -2.740229204697916430e+02 -2.744939432975521640e+02 -2.750836353545100224e+02 -2.755243479089577932e+02 -2.757978790168361911e+02 -2.761103978358065660e+02 -2.765643510135889755e+02 -2.770782665549750163e+02 -2.775072726397996803e+02 -2.777998960845746979e+02 -2.781041847821568922e+02 -2.785541808769064573e+02 -2.790798606498362915e+02 -2.796084544320619329e+02 -2.800988415353893970e+02 -2.805244989466432344e+02 -2.807036625163701729e+02 -2.800391056223000987e+02 -2.784653387838245067e+02 -2.770994761665222654e+02 -2.763477238504938214e+02 -2.758557248122248211e+02 -2.754156324082870242e+02 -2.749867738205699652e+02 -2.745939574192170198e+02 -2.743158469061939968e+02 -2.742107738190919690e+02 -2.742258708013939668e+02 -2.742824699048541106e+02 -2.743529167405619091e+02 -2.744440061460871902e+02 -2.745725132232106489e+02 -2.747540766431573047e+02 -2.749968673115190541e+02 -2.752889521091492497e+02 -2.756111414286989429e+02 -2.759488405775889532e+02 -2.762922241758186601e+02
-2.547131467399794360e+02 -2.554660708247393472e+02 -2.563197708767160066e+02 -2.574168256359924953e+02 -2.587970764384172071e+02 -2.601072344381573771e+02 -2.611575871260496911e+02 -2.621916347600040922e+02 -2.633417601026878856e+02 -2.645233193073042912e+02 -2.656530250027801685e+02 -2.667229146077189625e+02 -2.677661382548249094e+02 -2.687785412336015725e+02 -2.696206807988471610e+02 -2.701308247997075114e+02 -2.703977312635683461e+02 -2.705885559889376282e+02 -2.707683780033289622e+02 -2.709474783374434992e+02 -2.711265600822727038e+02 -2.713056418271018515e+02 -2.714847235719309992e+02 -2.716638053167602038e+02 -2.718428870615894084e+02 -2.720219688064185561e+02 -2.722010505412446264e+02 -2.723801260124067767e+02 -2.725589950797303800e+02 -2.727352543762472692e+02 -2.728982850699050005e+02 -2.730318017789902001e+02 -2.731311920265679305e+02 -2.732044276324233465e+02 -2.732604384786036462e+02 -2.733074884490214345e+02 -2.733516901823192029e+02 -2.733954079545079594e+02 -2.734390843353407945e+02 -2.734827588986080400e+02 -2.735264334233747832e+02 -2.735701079477000235e+02 -2.736137824720252638e+02 -2.736574569962181727e+02 -2.737011306403515505e+02 -2.737447691197904760e+02 -2.737878507657579803e+02 -2.738268531447976102e+02 -2.738518330249592054e+02 -2.738553955298224878e+02 -2.738448944685772517e+02 -2.738302856623479897e+02 -2.738151134379299947e+02 -2.737999054782077337e+02 -2.737846966188309352e+02 -2.737694877592088005e+02 -2.737542788995867227e+02 -2.737390700399646448e+02 -2.737238611803425670e+02 -2.737086523207204891e+02 -2.736934438969684038e+02 -2.736782620472787357e+02 -2.736636737496343699e+02 -2.736552857328049413e+02 -2.736761601967195929e+02 -2.737553768465008943e+02 -2.738342960815941751e+02 -2.736731100935451195e+02 -2.731571916767599646e+02 -2.726482785107363611e+02 -2.724447697086167182e+02 -2.724498916832620239e+02 -2.725254590718246845e+02 -2.726353009236711387e+02 -2.727843558687719678e+02 -2.729777474259896621e+02 -2.732541883090003125e+02 -2.737754625435220532e+02 -2.745962526314083334e+02 -2.753600111162551229e+02 -2.757995791617406098e+02 -2.761086462367469494e+02 -2.765039888923553804e+02 -2.769101591515999417e+02 -2.771424043088450162e+02 -2.772270371550110895e+02 -2.773791260893585786e+02 -2.776768158333979954e+02 -2.780450696318994233e+02 -2.784248013386750813e+02 -2.788002071028232649e+02 -2.791604926515091165e+02 -2.793909695229772296e+02 -2.790929276478382803e+02 -2.780969382434395811e+02 -2.770355921323961184e+02 -2.763267268183695364e+02 -2.758330813395763244e+02 -2.753923202680580289e+02 -2.749596341380912463e+02 -2.745452719407010136e+02 -2.742105335826141754e+02 -2.740358180242841399e+02 -2.740169236595071425e+02 -2.740811957903996472e+02 -2.741890071814737553e+02 -2.743464975818281459e+02 -2.745635844435416288e+02 -2.748346967010616595e+02 -2.751461476932936421e+02 -2.754793772214854357e+02 -2.758208950854606201e+02 -2.761651515715476535e+02 -2.765100946138111908e+02
-2.548385900667003057e+02 -2.555942200544830598e+02 -2.564822357392278604e+02 -2.576307353285271802e+02 -2.589755168762031872e+02 -2.601255782066220945e+02 -2.610097438270170187e+02 -2.619326444979782309e+02 -2.630287693115033676e+02 -2.642051667196070071e+02 -2.653525062362941753e+02 -2.664355048386312319e+02 -2.674865143355953023e+02 -2.685266265215270778e+02 -2.694467288244704832e+02 -2.700583450532099050e+02 -2.703807715226921573e+02 -2.705834938335789275e+02 -2.707642785443480307e+02 -2.709434077718368030e+02 -2.711224895207872123e+02 -2.713015712656652454e+02 -2.714806530105432785e+02 -2.716597347554213684e+02 -2.718388165002994583e+02 -2.720178982451775482e+02 -2.721969798514751346e+02 -2.723760486948053199e+02 -2.725547879463090339e+02 -2.727298788093829671e+02 -2.728885371696519542e+02 -2.730167308778907227e+02 -2.731184018628953822e+02 -2.732023558078853966e+02 -2.732693203613789592e+02 -2.733219214760138129e+02 -2.733676023762225213e+02 -2.734115366155049287e+02 -2.734552312032977852e+02 -2.734989066342119486e+02 -2.735425811800981251e+02 -2.735862557046521033e+02 -2.736299302290276501e+02 -2.736736047534033673e+02 -2.737172791252974093e+02 -2.737609433024921941e+02 -2.738043730044580570e+02 -2.738453660411636292e+02 -2.738755630661000851e+02 -2.738854893091124723e+02 -2.738783625185210440e+02 -2.738644751055021516e+02 -2.738493630072610472e+02 -2.738341570181621591e+02 -2.738189481672763463e+02 -2.738037393077008801e+02 -2.737885304481253570e+02 -2.737733215885498907e+02 -2.737581127289744245e+02 -2.737429038693990151e+02 -2.737276963551394147e+02 -2.737125426808323709e+02 -2.736982555628739533e+02 -2.736906867525260623e+02 -2.737103503055679994e+02 -2.737845380131352044e+02 -2.738596858203263764e+02 -2.736797172271240015e+02 -2.731016188542692475e+02 -2.725163708086675456e+02 -2.722629360034356409e+02 -2.722286499832231357e+02 -2.722494412448966159e+02 -2.722873722625587902e+02 -2.723485984438892729e+02 -2.724409856718468745e+02 -2.726032718546240403e+02 -2.730028461269229183e+02 -2.738835209604367265e+02 -2.750135092151876961e+02 -2.757485579922407624e+02 -2.761077105089188990e+02 -2.764193958252934635e+02 -2.766415882101886154e+02 -2.766101404331097910e+02 -2.764629408215042758e+02 -2.764267578835896870e+02 -2.765500869476156822e+02 -2.767711089386181698e+02 -2.770272565408809555e+02 -2.772901061350262353e+02 -2.775497971498496099e+02 -2.777634324263677854e+02 -2.777642796561572140e+02 -2.773923122657631666e+02 -2.768063306958405292e+02 -2.762647977398166290e+02 -2.758044994546244197e+02 -2.753684807172006686e+02 -2.749353987086295206e+02 -2.745113845640979093e+02 -2.741383905943549735e+02 -2.739027437978326134e+02 -2.738568529498655835e+02 -2.739558617266259262e+02 -2.741404469245533164e+02 -2.743890440722921085e+02 -2.746859674710444210e+02 -2.750111777585423170e+02 -2.753498797688627064e+02 -2.756934756751068107e+02 -2.760382561250837625e+02 -2.763832733945905602e+02 -2.767283317371450266e+02
-2.549648937294466009e+02 -2.557270165425894675e+02 -2.566583883952241649e+02 -2.578555171977546934e+02 -2.591397893836319213e+02 -2.601284826999464030e+02 -2.608759446176785559e+02 -2.617041552632057346e+02 -2.627331906301693607e+02 -2.638879096314351500e+02 -2.650470444221787147e+02 -2.661444966779005199e+02 -2.672025333912615679e+02 -2.682593981228526445e+02 -2.692477633484094213e+02 -2.699704041495792808e+02 -2.703600834545535463e+02 -2.705779432780301477e+02 -2.707600054036707320e+02 -2.709391761225062965e+02 -2.711182580115240057e+02 -2.712973397564035167e+02 -2.714764215012830846e+02 -2.716555032461625956e+02 -2.718345849910422203e+02 -2.720136667359216744e+02 -2.721927476709048506e+02 -2.723717924342156493e+02 -2.725501996457909399e+02 -2.727233324774606444e+02 -2.728766907266136172e+02 -2.729986869736820267e+02 -2.730997090173573270e+02 -2.731912012706922042e+02 -2.732703084855994007e+02 -2.733325380378721547e+02 -2.733824122431843762e+02 -2.734273677914663949e+02 -2.734712019830681129e+02 -2.735148879656923100e+02 -2.735585629270427717e+02 -2.736022374582238967e+02 -2.736459119826009783e+02 -2.736895865069781735e+02 -2.737332610200263048e+02 -2.737769320449278894e+02 -2.738204907741993566e+02 -2.738626194654457322e+02 -2.738972111894834143e+02 -2.739140702534361935e+02 -2.739112578433824865e+02 -2.738984507762838803e+02 -2.738834551652371374e+02 -2.738682549919320195e+02 -2.738530462510391317e+02 -2.738378373914650297e+02 -2.738226285318909277e+02 -2.738074196723168825e+02 -2.737922108127428373e+02 -2.737770019531687353e+02 -2.737617956527234924e+02 -2.737466815653239678e+02 -2.737328579955865848e+02 -2.737270450226582170e+02 -2.737469670300575899e+02 -2.738124783898819032e+02 -2.738756152324932600e+02 -2.736841995027668872e+02 -2.730639556352294335e+02 -2.724102742840162819e+02 -2.721150485096039233e+02 -2.720665596455570494e+02 -2.720754510981624890e+02 -2.720936394332769055e+02 -2.721203827725739757e+02 -2.721628734243777217e+02 -2.722486245492427770e+02 -2.725087815563773574e+02 -2.732896141259736282e+02 -2.745772199173977697e+02 -2.756000135166370910e+02 -2.760650379973491226e+02 -2.762585007737148999e+02 -2.762627105249376882e+02 -2.760421070836371200e+02 -2.757786939864945452e+02 -2.756256895316160467e+02 -2.756128231424927435e+02 -2.757190387964482170e+02 -2.758907860399621086e+02 -2.760838511922594307e+02 -2.762802223306962333e+02 -2.764678342645563589e+02 -2.766028534317740650e+02 -2.765986869211257044e+02 -2.764171781541347173e+02 -2.761156547453735470e+02 -2.757461543482051525e+02 -2.753377581857372434e+02 -2.749136650228203393e+02 -2.744959803391371906e+02 -2.741250931501490413e+02 -2.738795813523232141e+02 -2.738349309909355043e+02 -2.739781643263952446e+02 -2.742346268674579051e+02 -2.745457468915092250e+02 -2.748799586001312036e+02 -2.752220397626848012e+02 -2.755664445616067724e+02 -2.759114071660475247e+02 -2.762564587823698616e+02 -2.766015205348068093e+02 -2.769465833462114119e+02
-2.550910910642978138e+02 -2.558606457040669682e+02 -2.568329739876923554e+02 -2.580560863457600362e+02 -2.592543803705647179e+02 -2.601042651560313175e+02 -2.607561361600945133e+02 -2.615090219837760515e+02 -2.624616536541516325e+02 -2.635747501694179391e+02 -2.647349524698939831e+02 -2.658485718552547041e+02 -2.669166536115541248e+02 -2.679881555923699352e+02 -2.690404186497081014e+02 -2.698742150202341463e+02 -2.703356305496410528e+02 -2.705716506792840050e+02 -2.707556699859445644e+02 -2.709349379563420825e+02 -2.711140216659852058e+02 -2.712931034108647737e+02 -2.714721851557443415e+02 -2.716512669006239094e+02 -2.718303486455034772e+02 -2.720094303902598085e+02 -2.721885097002198108e+02 -2.723674998355481307e+02 -2.725452230593919012e+02 -2.727150609376618036e+02 -2.728619537365951828e+02 -2.729783762943345664e+02 -2.730778733391463220e+02 -2.731728681818425457e+02 -2.732615252995618675e+02 -2.733360402262811704e+02 -2.733944119209513701e+02 -2.734425908606655184e+02 -2.734870980901904431e+02 -2.735308601662046613e+02 -2.735745395749041791e+02 -2.736182142229697547e+02 -2.736618887479817204e+02 -2.737055632723589156e+02 -2.737492377964134675e+02 -2.737929110140515832e+02 -2.738365353122075589e+02 -2.738794408509635332e+02 -2.739176070138644263e+02 -2.739409939593300578e+02 -2.739432361432645848e+02 -2.739322254699519590e+02 -2.739175267750118792e+02 -2.739023478735327899e+02 -2.738871397232180698e+02 -2.738719308638079610e+02 -2.738567220042339727e+02 -2.738415131446598707e+02 -2.738263042850858255e+02 -2.738110954255117804e+02 -2.737958904193407079e+02 -2.737808191071908368e+02 -2.737675087257475752e+02 -2.737637985118136044e+02 -2.737849597106786632e+02 -2.738416167171012603e+02 -2.738874337922216000e+02 -2.736806390536913796e+02 -2.730247416243793168e+02 -2.723092859973357918e+02 -2.719769690605662049e+02 -2.719244798310832039e+02 -2.719418955227403103e+02 -2.719751421378977057e+02 -2.720200926730519768e+02 -2.720801627071469966e+02 -2.721696613649219216e+02 -2.723658770539506122e+02 -2.729588330489125383e+02 -2.741405211120727472e+02 -2.753505851862670397e+02 -2.759213628158094025e+02 -2.759421614743436066e+02 -2.757351472033452637e+02 -2.754427519264921784e+02 -2.751655007035328708e+02 -2.749517374087644157e+02 -2.748298362698537858e+02 -2.748314709902673485e+02 -2.749407436872755852e+02 -2.751047772723862863e+02 -2.752845807848333948e+02 -2.754659023273609364e+02 -2.756385821166348364e+02 -2.757750293351480764e+02 -2.758338988916369772e+02 -2.757792896111104710e+02 -2.755897018112340220e+02 -2.752821499802087146e+02 -2.749085455293973155e+02 -2.745441125185963642e+02 -2.742566236381844647e+02 -2.740892096059939718e+02 -2.740672492198157215e+02 -2.741921269817926259e+02 -2.744388264309617398e+02 -2.747552073163985824e+02 -2.750951201973135767e+02 -2.754395803206401752e+02 -2.757845879561142510e+02 -2.761296467409840716e+02 -2.764747094278775421e+02 -2.768197723071527321e+02 -2.771648351906735570e+02
-2.552176863051760733e+02 -2.559957622753321402e+02 -2.570032520350539471e+02 -2.582237811484335452e+02 -2.593124814327349554e+02 -2.600501668589556061e+02 -2.606440799196325884e+02 -2.613419763270165390e+02 -2.622206865481430214e+02 -2.632747925872712358e+02 -2.644210492343144665e+02 -2.655494461759848264e+02 -2.666295683787104167e+02 -2.677133959138423052e+02 -2.688184933129565479e+02 -2.697544461970456950e+02 -2.702969766440687636e+02 -2.705621976788459619e+02 -2.707510753963780417e+02 -2.709306919682552461e+02 -2.711097853204464627e+02 -2.712888670653260306e+02 -2.714679488102055416e+02 -2.716470305550851094e+02 -2.718261122999646204e+02 -2.720051940403050139e+02 -2.721842709213466378e+02 -2.723631834492268240e+02 -2.725399700369210905e+02 -2.727055728661580360e+02 -2.728452239564687716e+02 -2.729567726252982993e+02 -2.730548873896170790e+02 -2.731508392086200274e+02 -2.732449631496050984e+02 -2.733306728829310259e+02 -2.734009341235641841e+02 -2.734559948583577125e+02 -2.735026751974621675e+02 -2.735468034523553911e+02 -2.735905148331557939e+02 -2.736341909543065185e+02 -2.736778655129908771e+02 -2.737215400377396008e+02 -2.737652145621167392e+02 -2.738088887550952677e+02 -2.738525465823182685e+02 -2.738958900253923048e+02 -2.739363880021352315e+02 -2.739652820517559348e+02 -2.739736127323304800e+02 -2.739656369908137208e+02 -2.739515671661368970e+02 -2.739364396956840437e+02 -2.739212331898053208e+02 -2.739060243361509492e+02 -2.738908154765769041e+02 -2.738756066170028589e+02 -2.738603977574287569e+02 -2.738451888979128626e+02 -2.738299851964820846e+02 -2.738149570456334914e+02 -2.738021686851919867e+02 -2.738006918549948523e+02 -2.738241842431454529e+02 -2.738754723938392317e+02 -2.739074864192754148e+02 -2.736931315044413964e+02 -2.730199174859099571e+02 -2.722526716899687358e+02 -2.718855952217198819e+02 -2.718390950367848973e+02 -2.718833396320136444e+02 -2.719538619996917532e+02 -2.720416827043167132e+02 -2.721423347298675708e+02 -2.722590985450573271e+02 -2.724340745105281485e+02 -2.728758689203157246e+02 -2.738717287135006018e+02 -2.750795869682214061e+02 -2.756330891779809917e+02 -2.754762952131967495e+02 -2.751376166299849615e+02 -2.748424574930892277e+02 -2.745831488982722703e+02 -2.743454029224869828e+02 -2.741485265364008228e+02 -2.740432767472434534e+02 -2.740646549947714448e+02 -2.741865852574850351e+02 -2.743542224519711681e+02 -2.745339767162641920e+02 -2.747161606771676361e+02 -2.748988927696256042e+02 -2.750782295527436645e+02 -2.752359916882206221e+02 -2.753095466531574402e+02 -2.752162414720420998e+02 -2.749841061641170654e+02 -2.747562240239288940e+02 -2.746274291087780171e+02 -2.745882923396291062e+02 -2.745875901242353621e+02 -2.746165143856094346e+02 -2.747435745164710852e+02 -2.749948709172631425e+02 -2.753163970029697225e+02 -2.756580638659266356e+02 -2.760028482164372008e+02 -2.763478986471156986e+02 -2.766929612714515088e+02 -2.770380241536383892e+02 -2.773830870371592709e+02
-2.553463853783366631e+02 -2.561390286281886119e+02 -2.571789848279247508e+02 -2.583724753767932043e+02 -2.593380698177588215e+02 -2.599801089138151156e+02 -2.605360922835438373e+02 -2.611960584629450750e+02 -2.620124191792170905e+02 -2.629966136213371897e+02 -2.641118182157019874e+02 -2.652486244823919606e+02 -2.663407435815354916e+02 -2.674326314960842979e+02 -2.685708645416693798e+02 -2.695923454526027854e+02 -2.702326466052008982e+02 -2.705470134212196740e+02 -2.707460098317426969e+02 -2.709264317143891958e+02 -2.711055489728202019e+02 -2.712846307197872875e+02 -2.714637124646667417e+02 -2.716427942095463663e+02 -2.718218759544258774e+02 -2.720009576335675092e+02 -2.721800300589073345e+02 -2.723588374266724941e+02 -2.725345323849942929e+02 -2.726955483607194992e+02 -2.728277881309545592e+02 -2.729347813304532337e+02 -2.730316736149183043e+02 -2.731275778138219721e+02 -2.732239359266566225e+02 -2.733170615587376915e+02 -2.733994139328972324e+02 -2.734652068564863612e+02 -2.735170828397997411e+02 -2.735625674573433344e+02 -2.736064747077526818e+02 -2.736501669640501859e+02 -2.736938422617590732e+02 -2.737375168030118857e+02 -2.737811913274973676e+02 -2.738248658057918874e+02 -2.738685351434014024e+02 -2.739120620530735550e+02 -2.739539103285965780e+02 -2.739874142693734029e+02 -2.740025472494708083e+02 -2.739986450658503827e+02 -2.739855562124727157e+02 -2.739705284710809110e+02 -2.739553265849127115e+02 -2.739401178084939943e+02 -2.739249089489198923e+02 -2.739097000893458471e+02 -2.738944912297718020e+02 -2.738792823723571814e+02 -2.738640800417010155e+02 -2.738490958279112988e+02 -2.738368350920049465e+02 -2.738376735300385008e+02 -2.738644153458529900e+02 -2.739146346838992940e+02 -2.739475041327251574e+02 -2.737772570988877305e+02 -2.731738901085261659e+02 -2.723973662975830621e+02 -2.719759168619930279e+02 -2.719089820002411102e+02 -2.719651281427032927e+02 -2.720574644541822522e+02 -2.721693105339038539e+02 -2.722912351339131760e+02 -2.724200248672908629e+02 -2.725818093822464903e+02 -2.729280013030030432e+02 -2.737239405199850921e+02 -2.747317281598502632e+02 -2.751474250459207838e+02 -2.749061073143709564e+02 -2.745463909207893494e+02 -2.742650659920036560e+02 -2.740142933444809614e+02 -2.737693251493067237e+02 -2.735367247589241515e+02 -2.733503110517458481e+02 -2.732649627589543115e+02 -2.733061494035839587e+02 -2.734391245884121417e+02 -2.736142512386885528e+02 -2.738123191382366031e+02 -2.740459242198771790e+02 -2.743392160117152798e+02 -2.747015218450845850e+02 -2.750580777172921216e+02 -2.752466064739958256e+02 -2.752450344900059349e+02 -2.752059832984202785e+02 -2.752220201154999586e+02 -2.752732228743755059e+02 -2.752945455467861393e+02 -2.752418263907613891e+02 -2.751966129909841356e+02 -2.752977772505267922e+02 -2.755527656846318223e+02 -2.758785391370436173e+02 -2.762212500339156804e+02 -2.765661556218159376e+02 -2.769112131831877832e+02 -2.772562760001242168e+02 -2.776013388836450417e+02
-2.554788810259972820e+02 -2.562954043230932939e+02 -2.573583925402529076e+02 -2.584919810743899689e+02 -2.593351237480670193e+02 -2.599014641593831243e+02 -2.604297207794422775e+02 -2.610621038787842281e+02 -2.618311589665468091e+02 -2.627470534466113463e+02 -2.638136544792586733e+02 -2.649450826427444667e+02 -2.660483383825770147e+02 -2.671467584246737488e+02 -2.683036976726727403e+02 -2.693980524218437722e+02 -2.701486559905795275e+02 -2.705273597228728022e+02 -2.707405589684557299e+02 -2.709221583131275111e+02 -2.711013125529451031e+02 -2.712803943742484307e+02 -2.714594761191279986e+02 -2.716385578640076233e+02 -2.718176396088871343e+02 -2.719967209177160612e+02 -2.721757789311670876e+02 -2.723543657431353040e+02 -2.725285242016647089e+02 -2.726845502963033141e+02 -2.728097092747098031e+02 -2.729126332777068455e+02 -2.730084968634835150e+02 -2.731040777386830314e+02 -2.732008639996181500e+02 -2.732974061933495591e+02 -2.733886795674503674e+02 -2.734668263386921581e+02 -2.735280612143343433e+02 -2.735774854869766841e+02 -2.736223207916794991e+02 -2.736661347519952869e+02 -2.737098187100260702e+02 -2.737534935640844651e+02 -2.737971680928781666e+02 -2.738408426142261760e+02 -2.738845153205793395e+02 -2.739281243812661160e+02 -2.739708488831960267e+02 -2.740081710808037769e+02 -2.740299666537567873e+02 -2.740309019598425948e+02 -2.740193913381542075e+02 -2.740046050070570800e+02 -2.739894196160037154e+02 -2.739742112807541616e+02 -2.739590024212628805e+02 -2.739437935616887785e+02 -2.739285847021146765e+02 -2.739133758741247675e+02 -2.738981757917512141e+02 -2.738832456335935603e+02 -2.738715518390516195e+02 -2.738747687526164327e+02 -2.739051377556939428e+02 -2.739569185645542575e+02 -2.740055059303393250e+02 -2.739449553620482902e+02 -2.735606565857259511e+02 -2.729114885248191626e+02 -2.724366105465206260e+02 -2.722698149412782413e+02 -2.722525522143387207e+02 -2.722935128507394893e+02 -2.723757120269473830e+02 -2.724827606810187604e+02 -2.726030496425217962e+02 -2.727476092028310859e+02 -2.730118388578495114e+02 -2.735862990468082216e+02 -2.742820163903965067e+02 -2.745012838057403997e+02 -2.742650389185904487e+02 -2.739593870893560279e+02 -2.736968863371759539e+02 -2.734488226200512599e+02 -2.732023750183970492e+02 -2.729586337732721404e+02 -2.727310698884446083e+02 -2.725590686066515218e+02 -2.724965730149023670e+02 -2.725644619925277539e+02 -2.727384538496133928e+02 -2.729986583422112858e+02 -2.733578078062158738e+02 -2.738282298494843303e+02 -2.743941717606801944e+02 -2.749754784896805404e+02 -2.754269265930488473e+02 -2.756849643357329569e+02 -2.758244818950448121e+02 -2.759272001488677688e+02 -2.760171605065499989e+02 -2.760670982433196627e+02 -2.760047869367020326e+02 -2.758331309191274272e+02 -2.757304414812136883e+02 -2.758380741078647134e+02 -2.761089123153395803e+02 -2.764407240076981225e+02 -2.767844748790250833e+02 -2.771294668783698398e+02 -2.774745278646207680e+02 -2.778195907301308125e+02
-2.556141091205951454e+02 -2.564582123554702093e+02 -2.575223687627374147e+02 -2.585590664574784796e+02 -2.592941313262155063e+02 -2.598137418144127651e+02 -2.603233462501372060e+02 -2.609341785946508594e+02 -2.616719630808532884e+02 -2.625312440163927477e+02 -2.635335524920520243e+02 -2.646401988490454755e+02 -2.657518967178407934e+02 -2.668583332252871969e+02 -2.680293679973935923e+02 -2.691910165337922081e+02 -2.700551566047524261e+02 -2.705045036750083227e+02 -2.707346041126512546e+02 -2.709178498996467397e+02 -2.710970751875292990e+02 -2.712761580287097445e+02 -2.714552397735893123e+02 -2.716343215184688233e+02 -2.718134032633483912e+02 -2.719924834473802093e+02 -2.721715028164608725e+02 -2.723495896168737431e+02 -2.725211511236226443e+02 -2.726712998074300458e+02 -2.727902621721190712e+02 -2.728901951996233493e+02 -2.729853690251337071e+02 -2.730806201404637363e+02 -2.731771493744840313e+02 -2.732746383898080467e+02 -2.733705573259603057e+02 -2.734589031566951007e+02 -2.735323760690622521e+02 -2.735898831796140485e+02 -2.736376530948891741e+02 -2.736820467738822344e+02 -2.737257920002148239e+02 -2.737694702424952879e+02 -2.738131448576940556e+02 -2.738568193825566368e+02 -2.739004933906617794e+02 -2.739441447290827227e+02 -2.739874005407237973e+02 -2.740273985948080053e+02 -2.740549858533649967e+02 -2.740617252330827114e+02 -2.740529054512198854e+02 -2.740386545006253982e+02 -2.740235117692294011e+02 -2.740083047500302200e+02 -2.739930958936058687e+02 -2.739778870340317667e+02 -2.739626781744577215e+02 -2.739474695279885736e+02 -2.739322765785362890e+02 -2.739174567992678249e+02 -2.739065437468335062e+02 -2.739123254697718721e+02 -2.739462662453406665e+02 -2.739999064180763071e+02 -2.740609225508587770e+02 -2.740983076988850371e+02 -2.739851852712610025e+02 -2.736313474086761062e+02 -2.732310317239316078e+02 -2.729799187524999979e+02 -2.728423391904535720e+02 -2.727625566137487567e+02 -2.727411886956933813e+02 -2.727681527066106923e+02 -2.728353306568367316e+02 -2.729379775431865482e+02 -2.731089081791213289e+02 -2.734429206477667549e+02 -2.738084677537424909e+02 -2.738547452676704097e+02 -2.736397905565879114e+02 -2.733807768034452010e+02 -2.731307090925085959e+02 -2.728838048849635243e+02 -2.726373096917475323e+02 -2.723916005386773236e+02 -2.721510119751371803e+02 -2.719352967369122780e+02 -2.717949037773712462e+02 -2.718045902381895758e+02 -2.720127931373207275e+02 -2.724066209183772571e+02 -2.729474900230051730e+02 -2.735879944303733282e+02 -2.742840147179035739e+02 -2.749855274024067739e+02 -2.756196887405446887e+02 -2.761128877337769154e+02 -2.764378249282195839e+02 -2.766334762076335210e+02 -2.767602148169999623e+02 -2.768409600788650096e+02 -2.768219507728337589e+02 -2.766293109143949209e+02 -2.763557229903977941e+02 -2.762396249446539969e+02 -2.763766832205239439e+02 -2.766667905163168371e+02 -2.770034378673969968e+02 -2.773477560667831767e+02 -2.776927807774482062e+02 -2.780378425902266031e+02
-2.557494592939170275e+02 -2.566177252383001814e+02 -2.576654440776070487e+02 -2.585883589956658284e+02 -2.592294984468325652e+02 -2.597206977174698181e+02 -2.602167969406922907e+02 -2.608090462358624109e+02 -2.615261902380170227e+02 -2.623434157868738907e+02 -2.632790560581534010e+02 -2.643437538922398744e+02 -2.654548923364202437e+02 -2.665687931220305700e+02 -2.677518159376884341e+02 -2.689731008446334499e+02 -2.699455771736049883e+02 -2.704723064035495099e+02 -2.707265987425345770e+02 -2.709133741902040242e+02 -2.710928327881475752e+02 -2.712719216831709446e+02 -2.714510034280505124e+02 -2.716300851729300803e+02 -2.718091669175155403e+02 -2.719882451060118456e+02 -2.721671980609290813e+02 -2.723444654865495522e+02 -2.725122198937082203e+02 -2.726554812369201954e+02 -2.727692581391356725e+02 -2.728674168742492157e+02 -2.729622471838546289e+02 -2.730572168189167996e+02 -2.731533363866593618e+02 -2.732508362363699348e+02 -2.733485055424589518e+02 -2.734430763468113810e+02 -2.735280825757662342e+02 -2.735972147186271286e+02 -2.736513812386500604e+02 -2.736976863591938809e+02 -2.737417407464256485e+02 -2.737854457322488315e+02 -2.738291215936656045e+02 -2.738727961477151212e+02 -2.739164705907853659e+02 -2.739601382163039602e+02 -2.740036330204297883e+02 -2.740451997956207038e+02 -2.740776150474396218e+02 -2.740910228493786462e+02 -2.740860319768004274e+02 -2.740726616230905961e+02 -2.740576017761524099e+02 -2.740423981778934603e+02 -2.740271893659488569e+02 -2.740119805063748117e+02 -2.739967716468007666e+02 -2.739815635654612151e+02 -2.739663900687036175e+02 -2.739518227238194186e+02 -2.739422292479622456e+02 -2.739510287555249306e+02 -2.739881485601024451e+02 -2.740430259800748445e+02 -2.741066934692860286e+02 -2.741834967132185739e+02 -2.742416738644161569e+02 -2.741884074469428469e+02 -2.740240446030207409e+02 -2.738585031682180784e+02 -2.737045788603087431e+02 -2.735476764084462502e+02 -2.734066845850423988e+02 -2.733001029372352946e+02 -2.732438669706460814e+02 -2.732231749546797346e+02 -2.732317335310455064e+02 -2.733055648779437661e+02 -2.733735329019201572e+02 -2.732787562565671919e+02 -2.730586819647479615e+02 -2.728124255038204637e+02 -2.725656973146923292e+02 -2.723197299883661913e+02 -2.720753084879499397e+02 -2.718347592453101242e+02 -2.716025180463369679e+02 -2.713928734168727601e+02 -2.712466624989897355e+02 -2.712595724346845145e+02 -2.715441668290098960e+02 -2.720881101609137431e+02 -2.727723019329821454e+02 -2.735031872847749241e+02 -2.742456471483405949e+02 -2.749865334934521570e+02 -2.757063045818846945e+02 -2.763603833979292403e+02 -2.768835232190224360e+02 -2.772410212645301613e+02 -2.774609151616036797e+02 -2.775927020406445536e+02 -2.776366000866154309e+02 -2.775091267741216825e+02 -2.771787609737682487e+02 -2.768440965434166401e+02 -2.767523116248025872e+02 -2.769240341218330741e+02 -2.772274910481682468e+02 -2.775665261615021109e+02 -2.779110598792178735e+02 -2.782560952134572290e+02
-2.558823947640971994e+02 -2.567600199037233324e+02 -2.577733607331300050e+02 -2.585900495980572487e+02 -2.591553066833004095e+02 -2.596261991387552257e+02 -2.601105410156988000e+02 -2.606853546548458667e+02 -2.613872631043051342e+02 -2.621781372196212487e+02 -2.630578961787043113e+02 -2.640662691154802815e+02 -2.651602079542678894e+02 -2.662776456436311037e+02 -2.674690315141118049e+02 -2.687335695427552764e+02 -2.698005413241387487e+02 -2.704186330794221931e+02 -2.707138036759674264e+02 -2.709085053641211971e+02 -2.710885785167856739e+02 -2.712676853375296560e+02 -2.714467670825117693e+02 -2.716258488273912803e+02 -2.718049305619008464e+02 -2.719840060036900695e+02 -2.721628748869143237e+02 -2.723391473627414143e+02 -2.725024693492532606e+02 -2.726383422377954275e+02 -2.727474601450566638e+02 -2.728444644025062189e+02 -2.729391314107289759e+02 -2.730338881704718688e+02 -2.731296163164371933e+02 -2.732268454979005128e+02 -2.733249368757631714e+02 -2.734223229199460548e+02 -2.735152696113393631e+02 -2.735966072668467177e+02 -2.736611107324259251e+02 -2.737122404577471571e+02 -2.737575275743328120e+02 -2.738014078118153520e+02 -2.738450977366159691e+02 -2.738887729011181591e+02 -2.739324474319370211e+02 -2.739761196250080957e+02 -2.740197134247536042e+02 -2.740622568008272992e+02 -2.740987349587978770e+02 -2.741189392335825232e+02 -2.741185677508495928e+02 -2.741065572042575127e+02 -2.740916832390389573e+02 -2.740764913584747546e+02 -2.740612828382902535e+02 -2.740460739787177999e+02 -2.740308651191437548e+02 -2.740156580546283749e+02 -2.740005185169334254e+02 -2.739863708748762861e+02 -2.739787314319729603e+02 -2.739910797485968601e+02 -2.740308780872165357e+02 -2.740864301712088604e+02 -2.741485906573155376e+02 -2.742278415575477766e+02 -2.743409436248970223e+02 -2.744617579912845144e+02 -2.745424270461318201e+02 -2.745758046452752978e+02 -2.745481799037335122e+02 -2.744564188492822154e+02 -2.743092324494216427e+02 -2.741284356989401658e+02 -2.739219273994891637e+02 -2.736475714851427483e+02 -2.733339891821264018e+02 -2.730997440815573327e+02 -2.729300423195509211e+02 -2.727300545574851185e+02 -2.724933711385102129e+02 -2.722483347021952795e+02 -2.720046405726636749e+02 -2.717656890529279394e+02 -2.715360561112419759e+02 -2.713239324764933826e+02 -2.711371604303457161e+02 -2.709855748550506291e+02 -2.708974378572987689e+02 -2.709547097974440248e+02 -2.712907140856965498e+02 -2.719148948362895908e+02 -2.726746620425781202e+02 -2.734509958510645902e+02 -2.742142515373761853e+02 -2.749670230863106895e+02 -2.757121814908998658e+02 -2.764381175649547231e+02 -2.771052025573573019e+02 -2.776528345805494951e+02 -2.780425889461447468e+02 -2.782861787507399640e+02 -2.784107724434473994e+02 -2.783805825653846568e+02 -2.781149998980287137e+02 -2.776796124651474997e+02 -2.773343365896910200e+02 -2.772796885496966866e+02 -2.774778620135659821e+02 -2.777893375361098833e+02 -2.781296982421740722e+02 -2.784743660015444675e+02
-2.560162920502418729e+02 -2.568798055851036111e+02 -2.578276633653812837e+02 -2.585551510055962581e+02 -2.590724114059968315e+02 -2.595312935303695667e+02 -2.600059687411711025e+02 -2.605647508237021839e+02 -2.612532322711523420e+02 -2.620281149066514672e+02 -2.628654669421389372e+02 -2.638114015901640528e+02 -2.648702147954668362e+02 -2.659842268133803032e+02 -2.671802486293355514e+02 -2.684703093483728935e+02 -2.696164862467074954e+02 -2.703412794918784812e+02 -2.706957151736536389e+02 -2.709031998595739879e+02 -2.710843108808888928e+02 -2.712634489833839098e+02 -2.714425307369729694e+02 -2.716216124818525941e+02 -2.718006940862119336e+02 -2.719797628345523322e+02 -2.721585002744085386e+02 -2.723335756275247377e+02 -2.724921972325061006e+02 -2.726207163492680365e+02 -2.727254501407686007e+02 -2.728214735104282909e+02 -2.729160369965262589e+02 -2.730106679284378970e+02 -2.731060719968074864e+02 -2.732029123165855253e+02 -2.733009089808502381e+02 -2.733991469926355080e+02 -2.734959436818111271e+02 -2.735865392841460562e+02 -2.736633995129227515e+02 -2.737235879294465235e+02 -2.737725588198450168e+02 -2.738172737919062456e+02 -2.738610675209225747e+02 -2.739047494543598305e+02 -2.739484242009656327e+02 -2.739920980261649675e+02 -2.740357428750750159e+02 -2.740789110525946626e+02 -2.741184091817751778e+02 -2.741446896515134313e+02 -2.741498377330626681e+02 -2.741401739115627265e+02 -2.741257418351119668e+02 -2.741105838427747585e+02 -2.740953763102550056e+02 -2.740801674510607882e+02 -2.740649585914866293e+02 -2.740497527774266473e+02 -2.740346547019682930e+02 -2.740210132795157278e+02 -2.740156560312343572e+02 -2.740318274256173368e+02 -2.740740389200637424e+02 -2.741300317918777978e+02 -2.741904245074980508e+02 -2.742626348426813365e+02 -2.743753108918386943e+02 -2.745467376223493261e+02 -2.747466304892387825e+02 -2.749307543083282326e+02 -2.750693700717073398e+02 -2.751422966236342518e+02 -2.751208978180047211e+02 -2.749788475351000443e+02 -2.746293221584521689e+02 -2.739828205345989431e+02 -2.732422542852601737e+02 -2.727269245682551855e+02 -2.724223737151901901e+02 -2.721757041503103096e+02 -2.719338501921162674e+02 -2.716966721513954894e+02 -2.714705214261205128e+02 -2.712641276259566894e+02 -2.710845981811555703e+02 -2.709388850354125680e+02 -2.708305206260604336e+02 -2.707547581697755845e+02 -2.707225581947169530e+02 -2.708021645345633033e+02 -2.711271410990862023e+02 -2.717453562563249534e+02 -2.725348058841335614e+02 -2.733574165408410863e+02 -2.741574485048859060e+02 -2.749312988964190936e+02 -2.756892430342194871e+02 -2.764372046713766053e+02 -2.771673193033964253e+02 -2.778466330132832240e+02 -2.784203267667972455e+02 -2.788431443641771921e+02 -2.791042846914382380e+02 -2.791951813953957071e+02 -2.790558476413262952e+02 -2.786575116231232982e+02 -2.781586061945853317e+02 -2.778297271888961859e+02 -2.778128541670174627e+02 -2.780329810311507686e+02 -2.783512748356981774e+02 -2.786928717609602018e+02
